ply 
 format ascii 1.0
 comment particle cloud from Fluids_v4
 element vertex 1000
property float x
property float y
property float z
end_header
100.649544 81.191193 101.212563
101.768700 80.567108 101.170471
103.658768 80.765213 100.976280
104.995659 81.426857 101.376648
106.673195 80.297310 100.945763
107.405571 80.291222 101.220558
109.019241 80.280853 100.251617
110.158104 80.814735 101.269241
111.659904 80.988380 100.830551
113.996323 80.507599 101.174828
115.107071 80.657684 101.342278
115.918808 81.225502 101.380592
118.143921 80.832932 100.219910
119.138687 81.340469 100.586151
119.635857 80.737770 100.187920
122.353897 81.357155 101.285690
123.146919 80.622818 101.159348
124.718658 80.840752 100.154732
126.480110 81.397011 101.104591
127.604179 80.991760 100.593338
128.199783 80.713249 101.326317
129.822235 80.419052 101.344849
131.712189 81.432762 100.920227
133.345291 80.712494 101.387482
134.677521 81.053406 101.369370
135.236374 81.424103 101.382126
137.556763 80.993294 100.701897
138.114120 81.195236 100.528419
139.430984 80.361313 100.484909
141.089706 80.336334 101.363564
142.078445 80.790359 101.159668
144.599060 81.053719 100.633942
145.203323 80.509888 100.423637
146.423615 80.312340 101.120193
148.582108 80.328659 101.138199
150.193802 80.173195 100.826759
150.597824 81.211670 101.120895
153.004761 80.991035 101.158630
153.238144 80.824875 100.209007
154.728775 80.742950 101.242157
156.889877 80.172371 100.319893
157.515167 81.340088 100.274826
158.699203 81.313034 100.200783
161.303528 80.927544 100.351334
161.956528 81.372231 101.242180
163.574005 80.907394 100.730629
164.336411 80.839638 101.155228
166.973602 80.903961 101.322891
167.860779 80.149353 101.142006
169.667313 81.316833 101.257988
170.807739 81.358772 101.470566
171.857590 80.328476 101.256561
172.665421 81.005318 100.445633
174.270859 81.076263 100.541527
175.667465 80.203339 100.982140
177.645706 80.811600 101.453667
178.892792 81.102249 100.257843
180.350922 81.415833 100.728317
182.099869 80.705460 100.104500
183.146057 81.261063 100.425911
184.378494 80.771538 100.524933
185.353348 80.966461 100.156937
187.462204 81.039078 100.988503
188.143082 80.948746 100.973900
189.736801 81.131744 100.381767
191.626831 81.010086 100.458481
192.188232 80.462982 101.322571
193.590134 80.255051 100.603859
195.679535 81.028793 100.502388
196.648209 80.559334 100.364403
197.644791 81.252907 100.561890
199.641464 81.435791 101.380463
201.400757 80.268799 101.055588
202.898956 81.414070 101.376755
203.497131 81.205902 100.863655
205.867889 81.367516 101.317825
206.803238 80.326790 100.481674
208.079895 80.746078 101.282936
209.192764 80.351402 101.053352
210.374405 80.940384 100.786148
212.583252 80.348320 100.409294
213.136444 80.292625 100.602249
215.659424 81.365906 100.966843
216.894333 80.791245 100.566757
218.065796 80.948433 100.460762
218.642273 80.250275 101.001831
220.336288 80.561760 100.227005
222.630188 80.913162 100.469902
223.782944 80.779190 100.319145
224.986694 80.821396 100.389610
226.102173 81.256454 100.649551
227.356003 81.116310 100.989914
228.766479 81.350685 100.289612
229.696136 81.191444 101.179047
231.241776 81.306061 101.104668
233.101227 81.474564 101.086418
234.529205 81.305565 100.230865
235.795837 80.520485 101.015648
236.839249 80.171768 100.174438
239.137222 81.064354 100.716675
240.264175 80.906281 100.838371
241.340302 80.523994 101.338371
242.466064 80.949608 100.832588
244.453583 80.425583 101.256271
245.153992 81.387146 100.336395
246.723907 81.252037 100.505249
249.026947 80.579689 101.235512
249.247177 80.458763 101.184441
251.755020 80.529388 100.407959
252.836792 80.252899 101.040009
254.379349 80.379173 100.659027
255.375015 80.421875 100.637512
256.379272 80.873901 100.120316
258.089630 80.525558 101.127518
259.855774 80.869614 101.381378
261.472351 81.072395 100.534676
261.745728 80.842636 101.275925
264.026337 80.822510 100.658356
265.525909 81.217384 101.044479
265.963501 80.188568 101.055504
268.173553 81.075813 100.891228
268.712463 80.525330 100.464478
271.292877 80.352432 100.575653
272.716187 81.010330 100.536461
273.144348 80.318962 100.801537
275.219666 81.359894 100.366295
276.655487 81.310776 100.862755
278.364410 80.424835 101.391113
279.759155 80.788918 100.869965
280.966187 81.234444 100.928383
282.632202 81.404037 100.552223
283.459717 80.988686 101.158058
285.139832 80.466171 100.942154
285.658264 81.208458 101.305428
287.744843 80.674759 100.952751
289.112061 80.850433 100.306702
289.651825 81.076668 100.822006
291.717010 80.256966 100.782509
292.460297 81.234734 100.635994
294.416168 80.300629 100.675591
295.746399 80.124321 101.099915
297.705811 80.911926 100.722504
299.353149 80.181824 100.203476
300.192139 80.410179 100.406258
101.386848 81.128258 102.138374
102.678650 81.427460 102.815659
103.955627 80.564804 102.241333
104.945709 81.423500 102.142998
107.021530 80.356064 102.131668
108.135109 81.360741 101.852348
109.803131 80.562401 102.054108
110.626564 80.966942 101.759605
111.749184 81.011131 102.770531
113.486000 81.305916 101.646393
114.311554 81.000877 102.319298
116.258636 80.182014 102.274956
117.159187 80.126350 101.972542
119.501625 80.938042 102.567314
120.908401 80.341148 102.117653
122.109482 80.990410 102.839027
122.802925 81.329285 102.003456
124.830017 80.763000 101.873810
125.352112 81.306259 102.361801
127.863365 80.356483 101.886765
128.251343 80.972458 101.738998
129.679016 81.419464 101.512749
130.922562 80.743546 102.397125
132.289322 80.955879 101.591736
134.233948 80.708344 101.901947
136.206985 80.888908 101.759163
136.930817 81.234116 102.543205
139.113083 80.149696 102.222946
140.038086 81.075096 101.949936
141.410477 80.575829 101.563332
143.022156 81.073601 102.443634
143.732269 81.148521 101.908569
144.953064 80.923668 101.567886
146.302185 80.440201 101.683167
147.557358 81.339523 102.810913
150.159134 80.753586 101.851494
150.498581 80.914574 102.157188
152.947159 80.833672 102.304749
153.364014 80.468102 102.376274
154.466812 81.398003 101.977699
156.565277 80.658745 101.921440
158.129395 80.717758 101.868286
159.087738 80.398918 102.551323
160.969818 80.122543 102.671036
162.247849 80.547951 102.424179
163.985779 80.448647 101.850456
164.914322 81.339890 102.345383
166.735474 81.436234 102.520027
167.485992 80.161194 101.526672
169.056824 80.508110 102.480331
170.478317 80.751381 101.602470
171.838638 81.386658 101.553894
172.899323 81.091217 102.345146
175.291443 81.308754 101.724861
176.400208 81.183395 101.503151
177.764603 81.136330 102.778961
179.229355 81.418785 101.634827
179.858749 81.228317 101.625862
181.304962 80.341476 102.800056
182.446838 81.467102 102.671249
184.670425 80.736115 102.098724
185.550415 80.936737 101.674538
187.019119 80.290840 102.412910
189.112991 80.911598 101.787247
190.016205 80.535225 102.807732
190.842789 80.153320 102.210945
192.360901 80.730736 101.716599
194.063934 80.107574 102.398849
195.496628 80.217300 102.580643
197.200409 81.368332 102.701797
197.705551 80.834435 101.740242
199.185852 80.640640 102.324173
201.402527 80.851631 102.060013
202.625015 81.384109 101.802383
203.734924 80.632133 101.629272
205.146637 81.141273 102.795135
207.158936 81.095505 102.378532
208.264191 80.800056 102.299957
208.828278 81.153351 102.329071
210.381210 80.372971 102.576691
212.598663 80.356422 102.422432
213.114594 81.337967 101.635880
214.737579 80.378296 101.894363
217.073914 80.409225 102.199768
218.452499 80.298027 101.903931
219.439270 81.317032 101.817879
220.811569 81.260101 102.626274
221.367676 80.922684 102.353981
223.800583 80.496132 101.600372
224.355560 80.349403 101.994759
226.036011 81.002274 101.633720
228.113235 80.946648 101.638580
229.339844 80.655663 102.004524
230.067871 80.935562 101.588501
231.684235 81.327927 102.433777
233.132629 80.507477 101.806129
234.672485 80.519653 101.669106
235.931366 80.777016 101.761635
236.841599 80.508514 101.750618
239.304291 80.502350 102.620171
240.400589 80.344421 101.555748
241.915985 80.257408 102.693535
243.614777 80.847031 102.424103
244.777344 81.343384 102.485413
245.285889 81.267670 101.709000
246.860962 80.583794 102.235443
248.695435 81.099213 102.134491
249.204712 80.474388 101.760445
251.208786 80.429352 102.403450
252.470154 80.816711 102.087593
253.447159 80.231422 102.621201
256.145081 80.826340 101.889549
256.664246 80.711700 102.683105
258.652588 80.638275 101.688972
259.094604 80.936623 102.841835
261.554962 80.322006 102.611794
262.288727 80.734970 102.235199
264.482483 81.435951 101.616783
264.598175 81.351135 102.746841
266.501709 80.356110 101.799774
268.178925 80.202606 102.136475
269.345398 80.938599 102.657677
270.379730 81.219238 102.430588
272.832611 80.762100 102.029205
274.181885 81.377563 101.637283
275.498291 80.367218 102.777336
275.796570 81.243896 102.842812
277.071655 80.362305 101.893600
278.823425 81.143227 101.544281
280.340332 81.315102 101.890755
282.186249 81.434494 102.363007
283.241943 80.111938 102.881332
285.321686 80.238342 101.862160
285.831207 80.359215 102.510208
286.828735 81.072746 102.732887
289.447510 80.346214 102.384102
290.895355 81.041527 102.705780
291.762543 80.316261 102.648048
292.550049 80.730774 102.692863
294.428894 81.293922 102.760757
296.511871 80.342644 101.754959
297.074890 81.378319 102.368324
298.824097 80.820946 102.021255
300.327026 80.125076 102.399239
101.066605 80.824745 104.134460
102.434433 81.108803 103.533943
103.133003 80.553108 103.352272
104.533882 80.439339 102.921089
106.255684 80.395782 103.423706
107.247803 80.118340 103.088821
109.199844 80.829796 103.231010
110.608856 81.349976 104.063057
111.828705 81.130394 103.551300
113.286606 81.411552 104.114075
114.405495 80.399223 103.274231
116.066246 80.521622 103.704147
117.538513 81.454155 103.797813
119.587029 81.212936 103.429817
120.057266 80.987129 103.918228
121.745079 80.914162 103.025673
122.845932 80.903282 102.947296
124.509644 81.387672 103.482254
125.375137 81.082779 103.210907
126.586067 81.241356 103.546005
129.070602 80.276695 103.119888
130.651566 80.876007 103.292938
131.025085 80.144043 103.043129
133.006989 80.395103 103.831818
134.640594 81.105408 103.899658
135.835297 80.314781 103.012436
137.526642 80.549652 103.418587
137.920074 81.290886 103.430351
140.483505 80.876541 103.874252
140.668472 80.100067 103.102730
141.946884 80.472160 102.935669
143.963470 81.093788 103.705063
145.295395 80.537598 103.685448
146.735413 81.024193 104.091988
148.850311 80.443443 103.158493
149.010818 80.915146 102.971092
150.461594 81.171646 104.265701
152.728470 80.301300 103.673088
153.623642 80.935066 103.511551
154.879044 80.149490 103.106392
156.324127 81.118141 104.040070
157.779358 81.064926 103.089417
159.932251 80.574211 103.594177
161.306671 80.891571 103.057770
161.880524 80.256348 103.338455
163.161804 81.337845 104.150749
164.877060 80.595177 103.665276
166.135681 81.097969 103.649551
167.607132 80.622498 103.664658
168.471878 81.080376 103.194351
169.832443 81.114822 102.951660
171.577682 80.335732 102.938148
172.950226 80.602905 103.917694
174.298889 81.001320 103.174286
175.348068 81.165863 103.635162
177.408813 80.217590 103.072937
178.771927 81.063896 103.958122
180.076111 81.478767 103.629898
181.918854 80.907860 103.455948
183.355713 80.720398 103.789330
184.828842 80.639908 103.678841
185.146774 81.179428 103.990875
187.244278 80.558914 103.485481
188.462326 80.884720 104.208801
189.634430 81.099800 103.444115
191.657806 81.400307 103.011459
192.780853 80.793709 103.498459
194.773636 80.220665 103.294022
195.513504 81.299164 104.008057
197.131531 80.931808 103.646103
198.930527 81.457893 103.159317
199.782425 80.300995 103.183815
201.627441 80.954231 103.503845
202.581192 80.841606 104.271255
203.255402 80.702591 103.334206
205.330185 80.954521 103.893425
206.660614 80.834358 103.585625
207.566513 80.164604 103.282463
208.816269 80.768082 103.430687
211.049713 80.940804 103.376068
211.875687 81.206207 102.962395
213.421875 80.166527 104.032021
215.030014 80.299103 103.345718
216.807968 80.172020 104.269615
217.954147 80.788116 103.359322
219.293915 80.968086 103.936005
220.077347 80.299568 103.053482
222.368408 80.755844 103.181702
223.090103 80.470398 103.898155
224.551804 80.863060 104.206161
226.470459 80.484749 103.991829
227.358505 81.194321 103.829681
228.684174 80.121872 103.735695
230.578568 80.604576 103.416954
231.786148 80.796738 103.537964
233.828018 81.045967 103.186523
235.185226 81.410988 104.037674
235.942917 81.176704 102.959320
236.723770 81.277451 103.758568
238.927475 80.521126 103.281380
239.885574 81.343376 103.902519
241.190536 80.252350 103.859100
243.078522 80.329933 102.903214
244.798737 80.416046 104.022896
245.249878 80.993446 102.952126
246.986435 80.237747 104.050430
249.118332 80.741875 104.056419
250.259567 80.270676 103.560905
250.610596 80.396301 102.938972
252.432053 81.124374 102.927269
254.631134 80.156792 103.599426
255.143097 80.555206 103.629051
257.512329 80.907478 103.014091
258.502319 81.390816 104.063568
259.489807 81.052872 103.160553
261.467499 81.047768 103.208282
262.981445 80.473557 103.012772
263.135315 80.266342 103.090477
264.747375 81.016205 103.789024
267.289062 80.350952 104.089264
268.369537 81.429649 103.352020
269.931549 80.348465 102.970673
271.299255 80.457527 103.468590
272.796661 81.003174 103.569069
274.161530 80.908134 102.948669
275.252686 80.365448 104.033463
276.853302 80.755363 103.287010
277.971375 80.309151 103.979706
278.603882 80.264603 104.068405
280.264984 81.365379 103.238739
281.474823 81.033630 104.039291
283.082153 80.541229 104.184151
285.281555 81.459122 103.101326
285.656769 81.461090 103.521469
287.442078 81.134789 104.065865
289.456390 80.978447 103.594086
290.648956 80.595375 104.255165
291.366669 80.426781 103.170517
293.653137 80.142685 103.625023
294.270081 80.742043 103.523880
295.787323 80.951515 104.057144
297.392212 80.511490 103.745110
298.019318 80.743851 103.071556
299.488739 80.991951 104.179535
101.487320 81.367577 105.514893
101.694359 80.224861 105.238319
103.054398 80.402786 104.658546
105.225113 81.115303 105.271606
106.147087 80.868195 105.278313
108.246811 80.562866 105.621635
109.567284 80.232643 105.416191
110.878578 81.135178 105.294373
112.156738 80.955292 105.659996
113.620987 81.044334 105.458450
115.281387 80.263023 104.686020
116.606010 80.103653 105.237968
117.592957 80.662300 104.437714
119.239708 80.205376 104.677513
119.845978 80.239723 104.860924
122.176292 80.301323 105.167961
123.451424 80.973984 104.687927
124.213135 80.292404 104.677910
125.537094 80.903381 105.357414
127.382126 80.741402 104.678894
129.172226 80.656059 105.023857
130.023376 81.240822 104.460785
132.035919 80.861153 105.048935
133.111267 80.362923 104.639694
134.679108 80.867073 105.549301
135.895111 80.373238 104.727249
137.405685 80.230682 104.342087
138.494583 80.560440 104.955971
140.132416 80.125854 104.304688
141.676010 80.304916 105.464256
142.868851 80.659218 105.002678
144.118347 81.181816 105.441086
145.145081 81.136414 105.014259
147.392685 81.280960 105.616699
148.788116 80.104820 104.369926
149.335159 80.865356 105.552963
151.054535 81.397102 104.653122
151.765350 80.263405 104.505104
153.772797 81.047234 104.496658
155.079239 81.477188 104.997223
156.857224 80.157516 105.392891
158.468933 81.155617 104.816101
159.684311 80.725479 104.733856
161.408142 80.432854 104.500877
161.647263 80.693451 105.633354
163.561020 80.284485 104.306656
165.329300 80.342766 104.517670
165.817535 81.054344 104.351868
167.996292 81.284210 105.069969
169.224274 81.425522 104.900459
170.328857 81.173767 104.925957
171.177902 80.966286 105.623878
172.624451 81.403267 104.875130
174.045898 80.721237 105.189499
176.208984 81.246620 104.486832
177.445953 80.378151 105.224098
178.200775 80.440094 105.463173
179.797455 80.509651 104.315605
181.008682 80.781013 105.665024
182.465988 81.434929 104.633194
184.950302 81.047775 105.323624
185.274567 80.659157 105.452003
186.804764 81.478287 105.016983
188.148834 80.387108 105.626160
189.906433 81.235352 105.527565
190.824249 81.382622 104.616005
192.636307 80.427048 104.625046
193.728073 80.797699 105.224533
195.104980 80.694191 104.345856
197.399719 81.337311 104.354095
198.861969 80.910530 105.372452
200.130875 81.144638 104.703979
201.213211 80.377571 105.511086
201.986832 80.273109 105.460007
203.713669 80.231079 104.347900
205.435715 81.111885 105.168907
206.212997 81.054214 104.395325
208.191864 80.288872 104.325119
209.786606 81.237022 104.998878
210.968872 81.242310 105.315315
211.600525 80.972420 105.399803
214.013016 81.005829 105.210464
215.397812 81.097816 105.201279
216.370621 80.516212 104.439949
218.518188 80.374725 105.081779
219.004791 80.946350 104.288803
220.524551 80.827133 105.053467
221.804062 80.514809 104.446404
224.008698 81.385651 104.975983
224.912949 80.332474 105.371902
226.738602 80.719208 105.194099
227.937164 81.173500 105.562355
229.643402 80.790161 104.674385
229.831680 80.502640 104.768265
232.211777 81.361183 104.998055
232.757996 80.983910 104.995132
234.645004 80.117142 105.396004
235.511917 80.913925 104.902611
236.695450 80.242737 104.819908
239.265366 80.528290 104.974411
240.561020 81.188248 104.476303
240.933456 80.784019 104.881409
242.781204 81.418915 104.326462
244.432236 80.861046 105.291000
245.794464 80.833023 104.653168
246.563232 81.095230 105.394562
248.941101 80.360504 105.548653
249.885361 80.669090 105.018677
250.853882 81.034431 104.562202
252.208435 80.983063 104.475464
254.185379 80.341377 104.498009
255.772690 81.328461 104.696915
256.731720 80.889542 104.301849
257.948456 81.235870 105.195114
258.953461 80.889793 105.376938
261.702850 80.541641 105.385834
263.113434 81.487480 104.871033
264.007904 80.885948 105.264763
265.551575 81.302216 104.797043
266.954926 81.033417 105.303802
267.640625 81.145103 105.213753
269.492035 80.554893 105.137032
271.342621 80.659996 104.369080
272.493011 81.294365 104.326385
274.073212 80.736870 105.472237
274.307587 80.883018 105.244637
276.263458 80.187714 104.579910
278.086182 81.423164 104.727798
279.433350 81.481010 104.958382
280.294403 80.241440 105.439735
281.946777 81.348267 104.390747
283.687958 80.256577 105.574211
284.825653 81.192474 104.403175
285.907715 81.187263 104.766411
287.994019 80.885773 105.589806
288.927979 80.463631 105.040184
289.957123 80.144592 104.946175
291.185364 80.531937 105.367714
292.679504 81.297913 105.477409
295.140656 81.197647 105.067047
295.976288 81.009666 104.464203
297.176544 80.770073 105.239510
298.028870 80.975334 105.468018
300.598846 80.654228 105.355133
100.698822 80.447334 106.664154
102.272697 80.784470 105.952614
103.375801 80.182625 106.682312
105.460548 80.501961 106.878235
106.985329 81.488464 106.142586
107.732239 80.134697 106.580482
109.370590 80.801102 105.785736
111.109314 81.286896 106.626038
111.388214 80.649368 106.919296
113.874672 80.231087 106.266403
114.247971 80.307892 106.453087
116.037537 80.690498 106.257812
117.406647 81.153000 106.723473
119.302231 80.663132 106.258461
120.872192 80.796799 107.033592
121.491669 81.018806 105.867142
122.469559 80.145615 105.831444
123.964943 80.850456 105.918236
126.140015 81.123932 106.064682
126.796097 81.075096 106.376541
128.603180 80.459190 106.337479
130.284271 81.348541 106.606956
131.307297 80.999725 106.199547
132.573898 80.819290 105.953568
134.307114 80.537613 106.088730
136.123703 80.759567 107.005730
136.619141 80.429588 106.601471
139.027176 80.337189 106.991333
139.712311 80.687988 106.548576
140.952454 80.514709 106.592125
143.217209 80.150841 106.317505
144.066345 81.023674 106.519676
146.050903 81.361008 106.756920
146.610199 81.121826 106.189194
148.827881 80.149841 107.002014
149.156937 81.352524 106.088875
150.710403 81.390060 106.682404
151.968094 80.633698 106.165504
153.634720 81.235619 106.252182
155.109467 80.131035 105.776566
157.129074 81.286087 106.069923
158.044937 81.011719 106.916702
159.585434 81.277893 106.315422
161.054306 81.156898 106.412277
162.364273 80.453850 106.654556
163.691711 80.179245 105.777519
165.412430 80.782295 105.713623
166.304337 80.242798 106.794724
168.313324 80.223824 106.711426
169.413406 80.987305 105.802696
170.443069 80.870720 106.132530
171.598892 81.297409 106.079712
172.715973 81.486870 106.932884
174.024261 81.463005 106.797768
175.996857 81.263992 106.055122
178.045197 80.209023 106.257439
178.364685 80.328041 106.272476
180.640625 80.827774 106.152336
181.023758 81.037468 106.382759
183.053574 81.215073 106.207260
184.814056 80.499321 106.224960
185.467865 80.381905 106.749039
186.544876 80.163338 106.666260
188.058182 80.282875 106.881790
189.690155 80.513435 105.953873
191.813873 80.858810 106.200256
192.368958 81.335617 106.065811
194.416779 81.025673 106.223885
196.177933 81.201447 106.133850
197.629715 80.242065 106.994949
197.845200 81.020393 105.681931
200.136505 81.316322 106.456665
200.662994 81.163139 105.927322
202.248596 80.880180 106.904099
203.835876 80.329086 106.055962
205.761688 81.032448 106.532272
206.640823 81.418724 107.060509
207.461136 81.414635 106.346489
209.628815 80.781021 106.324226
210.684555 80.140068 106.345924
212.677277 81.025841 106.398087
213.280075 80.661362 106.543388
215.151352 81.351952 106.794884
216.545303 80.686333 105.918388
217.659409 80.338074 106.342110
218.700470 81.441193 106.525467
220.563400 80.208870 105.832626
221.476974 80.931152 106.153252
223.085037 81.303940 107.064163
224.486755 80.966721 105.891411
226.233551 81.438896 105.994377
227.433548 80.665375 105.834518
229.098618 80.929230 105.902725
230.465607 81.180794 106.243912
232.271667 80.829140 106.818787
232.642303 80.331215 106.871048
233.910599 81.294388 106.880302
235.929993 80.130890 105.856209
238.025528 80.603188 105.796013
239.117706 80.383133 105.831894
240.554932 80.487221 105.721603
240.910599 80.718117 106.182014
243.576691 80.359970 106.883163
244.114029 81.113380 106.324829
245.830612 80.564308 106.620232
246.904907 81.229042 105.761826
248.041946 80.310440 106.653442
249.690140 81.237938 106.066238
250.721710 80.540451 106.382164
253.041962 81.316772 105.750877
253.460159 81.386635 106.806801
255.676865 80.490807 106.781143
257.018799 80.760551 106.089828
257.953278 80.604256 106.102173
259.665222 80.114792 106.222633
261.496704 81.041481 105.701073
263.119293 80.835838 105.771080
263.690002 80.274559 106.339752
264.592010 80.505730 106.890732
266.714203 81.031052 106.975594
267.509277 80.424599 105.888832
269.533356 80.743607 106.903038
270.756348 80.484848 107.032097
272.817688 81.485771 105.982460
273.612976 80.506149 106.642181
274.858917 80.341110 106.210167
276.318481 80.460075 105.903130
278.356201 80.237900 105.981880
278.920990 80.623322 106.363937
281.018860 80.626152 105.721756
282.156342 80.113029 106.523323
282.644135 81.258385 106.439018
284.203308 80.440384 106.301224
286.007111 81.263992 105.680580
286.949677 80.336311 106.951981
288.586670 80.293045 105.797935
290.322266 80.914474 106.408348
292.339966 80.882706 106.595474
293.188477 80.477974 105.982391
293.929108 81.174011 105.814957
295.200562 80.868782 106.739563
297.112366 81.172745 106.111076
299.275513 80.422234 106.372047
299.875153 80.922585 106.800262
100.343636 80.567787 107.395210
102.743919 81.349861 108.116180
103.121262 81.457748 107.127617
105.318611 80.301758 107.758507
106.644234 80.463821 107.335480
107.110268 80.805725 107.853584
109.488518 80.191376 107.315750
110.767944 81.475197 108.448586
111.696968 80.416122 108.415581
112.813393 81.104080 108.026558
115.002663 81.119926 107.851433
116.649361 80.182274 107.346336
117.267204 80.647568 107.982384
119.467827 80.408287 107.515144
120.007629 80.796646 108.104774
121.679810 81.125687 108.144943
123.736618 81.132843 107.108307
124.431747 81.100616 107.595032
125.808784 81.412224 107.898941
126.576157 81.211029 108.321297
128.233688 80.876007 108.003532
130.446228 81.484436 108.080002
131.443024 80.757111 107.077873
132.438156 81.188568 108.167763
134.270203 81.241821 107.425827
135.684662 80.986610 107.263687
137.134476 81.128380 107.505211
138.468475 80.398834 108.320770
140.190765 80.896629 108.203323
141.296982 80.855659 107.923378
141.922119 80.967003 107.121658
143.858353 81.255165 107.613594
145.593185 81.005173 108.335342
146.481400 80.171356 107.308990
148.576202 80.779953 107.683945
149.848694 80.577042 107.137146
151.537003 81.306229 107.099625
152.225220 80.988754 107.816887
153.412506 80.904297 107.963638
155.009644 80.149567 107.888321
156.791779 80.795990 107.402466
157.997803 80.677216 108.230560
159.881042 80.486832 107.993073
160.881180 81.095970 107.176453
162.219513 80.241821 107.085716
163.834732 80.868355 107.638741
164.376801 80.174706 107.991089
165.715271 80.451744 107.888580
168.032166 81.256798 108.105804
168.718460 80.908691 107.962425
170.966812 80.527824 108.113998
171.195084 81.256195 107.083801
173.856155 80.135262 107.890083
174.755188 80.101151 108.001785
175.420837 80.565201 107.401817
177.555359 81.256149 108.346260
179.051361 81.024391 107.960030
179.864929 80.494789 107.138145
181.741302 81.217888 107.874863
183.192780 80.924416 107.365837
184.565216 81.221672 107.394142
186.221786 81.361679 108.319847
186.825867 80.293991 107.072502
189.235962 81.384506 107.295364
190.094711 81.221146 107.810051
190.795181 80.913940 108.364014
192.604507 80.811203 107.471809
193.601715 80.803391 107.878044
195.284576 81.237930 108.338882
197.252563 81.231056 108.426842
198.964859 81.465088 108.163750
200.289413 81.424866 107.831711
201.479233 80.214081 107.507057
202.748093 80.443398 107.793907
204.268112 81.231468 107.165787
205.048370 81.009583 107.872383
206.654449 80.783585 108.101242
207.814987 81.100410 107.280205
209.759277 81.409706 107.308311
211.421783 81.105766 107.186752
212.693924 80.659561 107.749100
213.870453 80.115334 107.794594
215.507706 80.926140 107.434654
216.096634 81.272781 108.135025
217.610718 80.808594 108.330368
218.856766 80.182899 108.304131
221.327209 80.184769 107.796188
222.418579 80.948692 107.814339
222.736298 80.135765 107.145126
224.165985 80.905472 107.155640
225.746490 80.556046 108.459854
227.137131 81.167206 107.250572
228.677551 80.153267 107.256218
229.824768 80.132675 107.659325
231.199448 81.421257 108.442802
233.251953 80.829468 107.698662
234.634094 80.809540 107.382843
235.383881 80.504234 107.687943
237.516006 80.720116 108.007385
238.343033 81.223709 107.467735
240.619553 80.689713 108.441368
241.458389 80.673019 107.122192
242.730286 80.137321 107.621529
244.389618 81.285942 107.742432
245.518326 81.091034 108.022049
246.411545 80.282318 108.050545
248.605576 80.630257 107.631516
249.457108 81.065002 107.446320
250.751251 80.460014 108.424370
252.916428 80.118889 107.197220
253.433044 80.784508 108.384972
255.247284 80.699730 108.028717
256.360992 80.623100 107.276428
258.262512 81.292725 108.128441
259.280090 80.332283 108.277893
261.541260 80.296539 107.701332
262.293915 80.698029 107.815964
263.747711 80.978935 107.203758
264.694244 80.161057 107.169838
266.578461 81.164314 107.299820
267.505096 80.542000 108.124443
268.945801 80.825211 108.080963
271.055420 80.931183 108.228104
272.519104 80.501762 107.793633
273.884583 80.181923 107.354156
275.239044 80.523666 107.963554
276.156372 81.099152 107.451614
277.735107 80.717186 107.677345
279.517700 80.374115 107.437134
280.851257 81.483841 107.545067
282.066925 80.345490 108.391869
283.286011 80.757835 107.713898
284.771942 81.033806 107.544037
286.783112 81.473351 107.111763
287.798096 80.529137 107.267998
289.258789 80.911087 108.186844
290.691101 80.196304 107.686295
291.086060 81.197105 108.321617
293.735321 81.285812 108.431358
294.236389 80.717583 107.917175
295.337555 81.426971 107.170876
297.879913 80.248390 107.637917
298.543976 80.871666 108.215363
299.549194 80.974533 108.009644
101.070839 80.268265 109.032768
102.758797 80.533279 109.033028
103.112518 80.643280 108.878113
105.441132 81.367607 108.933006
106.874855 80.676201 108.507973
107.791718 80.718208 109.074303
109.850433 80.468559 108.599686
111.097076 81.181648 108.527443
112.497322 80.739098 108.945213
113.713211 81.157120 109.403549
114.241234 81.460548 109.041069
116.662415 81.152962 109.753792
117.056847 81.440651 109.224220
118.779961 81.477409 109.329597
119.960503 81.108170 109.208221
121.697784 80.914551 109.483284
122.455032 80.213959 108.741890
124.959320 81.324326 109.497780
126.373116 80.324318 109.813026
127.852371 81.352280 109.142357
129.168015 80.152039 109.540497
129.397964 80.655556 109.393951
130.925674 80.387634 109.051346
133.250977 80.320091 108.486717
133.876251 80.407486 109.362152
135.074036 80.645393 108.556892
137.098785 80.155380 109.429733
139.030151 80.357552 109.233719
139.425507 80.559677 108.552399
141.524567 81.125237 109.194740
143.215637 81.424973 109.119362
143.447845 80.784966 109.251167
145.682083 80.398781 109.057945
146.927216 80.793724 109.527817
148.225586 80.743011 109.334579
149.770462 80.353767 108.844238
150.976761 80.575523 108.622902
151.764084 80.996529 108.587921
153.878250 80.886169 109.508965
154.521317 80.545593 108.532524
156.581406 80.769363 109.268150
158.593536 80.581429 108.876144
159.748322 81.389610 109.842690
160.167252 80.472389 108.908867
162.258652 80.710655 109.659203
162.917908 81.426010 109.442581
164.916321 80.737007 108.988678
166.673599 80.700096 108.933769
168.253891 81.380798 109.089233
168.746674 81.144264 109.025032
170.711731 80.653183 109.191963
172.090271 81.279716 109.020927
172.955093 80.465591 109.795868
174.249756 81.023911 108.519676
175.512482 80.687248 108.880531
177.925751 80.993187 108.750778
178.912399 81.018898 109.369629
180.095001 80.180115 109.709755
181.551987 80.687172 109.667717
182.685593 80.474106 109.006065
184.445236 80.587395 109.741692
185.116852 81.440254 109.121948
187.026474 81.181366 108.502594
188.466949 80.432251 109.851929
190.530396 81.007011 109.578194
191.659805 81.073410 109.004784
192.233261 80.457962 108.853012
194.191589 81.037964 109.771606
194.884872 81.298759 109.576782
197.391953 80.484192 108.695732
197.711929 80.377213 109.074799
199.642700 80.712181 109.082085
200.552429 80.445740 109.355217
203.139221 80.145462 109.800468
203.616928 80.438942 109.094078
205.883835 80.651146 109.674385
206.356827 81.036629 109.819199
208.714584 80.300400 108.855438
209.264816 81.109123 109.113342
210.408524 81.374313 108.621414
211.800705 81.155518 108.533691
214.068466 80.119621 108.705811
214.719467 80.978767 109.707024
215.790817 81.166870 108.618011
217.757843 80.222672 108.962166
218.864258 80.996498 108.997551
220.446793 81.289780 108.954903
222.398712 80.755203 109.554298
223.038757 81.266876 108.516808
225.301392 80.401497 108.596382
226.688568 81.482292 108.854240
227.957474 80.651138 108.676865
228.968979 80.817917 109.270409
229.909592 81.446846 108.864708
232.225204 80.998497 108.540398
232.635712 81.273575 109.184898
234.815903 80.880592 108.962982
236.344391 80.738251 109.352310
237.282852 81.385437 109.152832
238.492294 81.008583 109.022369
239.675644 81.471664 109.180992
242.161087 81.224586 109.647797
242.859085 81.367081 108.962456
244.670074 81.326241 109.728065
245.629669 80.476517 109.801506
247.424469 80.939278 109.631577
248.534424 80.569870 108.998451
250.575027 81.199715 109.358559
251.667923 80.325012 109.132721
253.332993 80.565979 109.151627
253.716476 81.292969 109.836327
255.796051 81.349861 109.054848
256.396606 80.641815 109.008408
258.938202 80.425446 108.563316
259.745850 80.740662 108.960556
260.690918 80.104568 109.459015
261.966949 80.377197 109.501663
263.873993 80.438751 109.232155
264.662537 80.853943 109.536827
266.528046 80.377136 108.476982
268.130035 80.664276 109.158188
269.594208 80.900391 108.592720
270.145569 80.732155 109.532516
272.128082 80.776993 108.886620
273.838989 80.173744 109.512642
274.690704 80.530258 109.847328
276.855835 81.169617 108.782005
278.411804 80.437874 109.705048
279.360657 80.648697 108.646027
281.201019 80.417633 109.150612
282.195129 80.468597 108.858437
283.684357 80.923950 109.519974
284.929901 80.818077 109.370865
286.573975 81.003647 108.928123
287.398865 80.889015 109.800827
289.339355 81.291336 109.765991
