ply 
 format ascii 1.0
 comment particle cloud from Fluids_v4
 element vertex 1000
property float x
property float y
property float z
end_header
75.699524 15.321620 116.195244
75.808311 13.942499 116.415321
76.209412 14.198859 116.548996
76.061081 14.463253 115.949524
76.396523 15.736110 115.373207
76.655884 16.229460 115.592453
76.407867 15.919957 115.212479
79.592461 18.275055 114.635666
148.771942 21.378958 91.337608
148.739044 21.373152 91.362907
148.778107 21.245024 91.350960
78.975990 21.042215 111.050797
77.064903 19.466696 113.866737
77.150383 20.016758 113.684387
77.505898 20.287336 113.659355
79.389046 21.092749 111.338371
77.604774 18.756971 113.490242
79.175880 19.691847 113.916061
77.658920 19.262182 112.935989
78.090179 20.053339 113.322327
80.534058 18.979740 113.158501
80.759583 19.415298 112.952194
81.460777 19.450033 113.511963
82.574852 19.466698 113.286545
82.434052 19.167233 113.306870
81.288452 20.714069 112.765457
82.656952 19.112425 113.577591
82.846863 18.903479 113.667702
78.368050 18.504120 114.579681
78.066757 20.479187 116.922798
78.063141 20.763107 116.819420
79.578636 19.149855 114.617409
78.827660 19.099762 115.110680
78.044350 20.529869 116.960777
79.507355 20.529955 116.507492
79.904724 19.005424 115.379074
80.821602 18.443686 114.159164
83.880241 20.003620 116.231529
83.797379 19.969019 115.879601
84.104393 19.533649 115.402054
83.823486 19.847147 115.975380
78.100311 20.320997 117.059624
148.732208 21.525171 91.371674
148.705200 21.628946 91.360100
174.304947 23.917923 90.429367
175.196198 24.413305 90.247665
175.486282 24.195784 90.027061
175.515854 23.890390 90.081390
91.934654 23.493126 98.862427
91.742012 23.779358 97.307045
91.991142 23.544046 98.827606
91.713463 23.582449 97.235947
90.208969 22.954798 98.423698
91.728325 23.536964 97.282417
90.038620 23.026974 98.516960
92.123909 23.644485 97.465202
83.051613 22.632914 102.000061
86.132942 24.123224 101.321625
86.139297 24.066570 101.300453
86.123947 24.116554 101.305000
86.108437 24.068020 101.321129
87.510567 24.624241 100.788887
88.356491 24.523325 100.810722
88.900299 23.807095 99.795456
88.340958 24.556746 100.826897
88.334389 24.517796 100.868027
89.130081 23.625669 99.521339
90.099953 23.190245 99.596291
90.532005 23.158520 99.638855
90.894722 23.611591 99.232666
82.081604 22.417700 102.218254
81.674553 22.378523 103.800224
82.162651 23.977156 104.551193
82.370041 24.347658 104.494308
82.752754 23.236752 102.485985
83.444061 22.809896 102.914383
82.029381 21.858013 103.674217
82.329887 22.071016 102.291733
82.001602 21.950439 103.716187
84.482056 24.362070 104.023468
84.230667 24.238091 102.144920
84.265633 24.202406 102.076180
84.347542 24.286310 102.214645
79.336906 22.770424 107.466881
80.472137 23.746344 107.075241
80.437500 23.716915 105.800972
80.301720 22.097435 106.924622
79.953819 22.562227 106.809441
81.256744 22.726774 106.653160
80.608063 23.187485 105.062286
81.491531 24.305670 105.767815
81.343124 22.317196 105.272011
81.661263 22.239100 105.691956
83.419014 23.402521 106.982430
83.588257 23.457439 106.272957
83.843224 23.352058 105.672768
83.971252 23.624123 105.569611
125.684380 23.600218 105.755058
125.853386 23.820131 105.792297
125.604706 23.620119 105.594795
125.970657 23.712772 105.399529
79.349129 23.725021 108.003540
78.154999 22.200756 109.139786
78.901825 22.181858 108.207657
79.100243 23.160212 109.308655
78.233429 23.373283 109.585182
78.273727 23.382303 110.062538
79.795464 21.820965 109.418159
78.190140 21.554888 110.347862
80.522308 22.788046 109.224762
80.582695 22.993670 108.574516
82.429657 22.899420 109.392754
82.790802 22.913519 109.107735
82.011978 22.217621 111.069664
82.594109 22.455210 110.279663
83.478142 23.420563 109.314514
83.447556 23.874037 108.393021
83.714134 23.477320 108.274628
79.237396 22.707367 111.145233
78.023705 21.653824 111.469231
78.304764 22.057684 111.566086
79.396355 22.538828 111.872490
82.108559 22.048033 111.094719
81.008575 21.658434 112.607002
81.297134 21.597279 112.994339
81.972260 21.924704 111.125099
83.207832 23.882214 112.702606
82.705276 22.899826 113.868431
81.792488 22.442738 113.073418
80.798248 22.026125 112.553650
83.085640 24.139151 112.805626
83.774605 24.389772 113.131767
82.536880 23.068827 114.212440
82.581413 23.091450 114.186653
82.903603 23.633938 114.233437
79.929886 21.408302 117.201836
78.614304 21.674381 117.364326
79.878342 21.720419 117.278404
79.895470 21.300730 117.754875
80.010406 21.234875 117.699928
139.593231 24.312918 139.258591
139.583298 24.576824 139.264221
139.657791 24.061693 139.242706
139.579987 24.583193 139.278488
139.553772 24.715569 139.269241
174.089554 25.661703 89.990715
174.536148 25.435654 89.978752
174.201462 25.649536 89.745293
83.010727 24.626459 104.033188
83.442192 24.886742 104.042671
85.052826 24.996458 103.573868
84.906586 25.441416 103.836205
85.886574 25.923235 104.331551
86.485497 25.163897 104.406815
87.691040 24.975485 103.860359
87.106758 25.072723 103.803230
87.139977 24.835194 104.118271
89.215057 25.883255 103.995773
89.150124 25.690304 103.911148
89.234360 25.555122 103.906570
91.356377 26.972425 104.679848
90.224228 26.260075 104.826530
91.479599 26.274218 103.871956
89.590179 25.609175 104.553322
91.621407 26.299337 103.890587
92.394211 26.588480 104.083870
92.596222 27.374104 104.427017
92.608833 27.372280 104.407776
96.444511 26.037659 104.439133
96.052605 26.773174 104.862816
96.778839 26.130167 104.609535
96.533218 25.777452 104.511192
96.157272 25.692062 104.300209
125.438995 25.112566 104.661461
125.878304 26.563536 104.725601
126.245033 26.694727 104.745331
126.736282 26.384802 104.827065
125.947006 26.049376 104.450996
82.402031 24.551378 106.146057
82.805405 24.609844 107.001991
84.328484 24.607344 106.181595
84.888290 26.048977 105.208977
86.211220 26.369968 105.331627
84.589447 25.685221 106.928108
83.939957 25.650728 107.124397
85.873474 25.869394 107.480820
84.865784 26.418011 106.630798
84.465363 26.142874 107.883194
85.204033 26.384687 105.703781
88.262672 25.136173 105.097649
87.563438 25.589746 106.133591
88.774117 25.230549 107.461189
86.687294 26.520782 106.432327
87.013519 26.354467 107.844696
87.209137 26.097727 106.867203
88.407906 25.886456 106.678970
90.988434 26.922186 106.367615
89.670486 25.780193 107.964211
90.813400 26.845884 107.358147
90.934921 27.160797 105.620621
92.409752 27.366323 106.474243
92.458244 27.369164 106.495117
91.974525 27.333279 106.525276
94.430122 27.265337 106.100456
93.318970 26.999855 105.377983
94.737114 27.306433 106.197502
94.953644 27.198420 106.007027
95.020927 27.203568 105.963310
97.407616 27.003822 106.800713
96.634453 25.870790 105.289505
97.976830 27.124287 107.468544
99.350113 26.729706 106.361504
99.032082 26.570482 106.418655
99.562393 26.825029 106.733734
99.561394 26.537025 106.645615
125.205704 24.558760 105.913223
126.356232 26.661734 105.160843
126.568481 25.243738 105.501640
125.552528 25.352816 105.980652
83.322975 25.582481 108.568710
83.370712 25.568384 109.550690
83.370316 25.504238 108.778320
83.537254 25.573282 110.308563
85.054558 24.782053 109.681999
84.740471 24.532040 109.533676
83.896988 24.899738 110.440216
84.999802 25.897755 109.645844
86.233803 27.171444 110.047249
85.465683 25.118790 109.231804
87.047112 27.170225 109.567528
87.215515 26.374546 110.229759
86.709740 26.155075 108.967155
88.156410 25.289688 108.346878
88.585503 25.168770 108.225151
87.295586 27.190296 110.389137
87.293472 27.130461 110.043793
89.155464 25.629927 108.603050
91.302391 26.491714 109.242470
90.122849 26.061510 108.353775
90.831665 27.049835 108.960388
91.531502 27.310806 108.143753
91.683937 26.700729 109.472878
91.196877 26.699768 109.391083
94.123276 26.381577 108.874207
94.348724 26.704084 108.056740
93.433350 26.678438 108.827774
93.177162 26.614246 109.417328
93.285500 27.254812 109.459526
180.196030 26.170918 110.925484
180.205322 26.221615 110.909927
180.213440 26.204010 110.906891
180.203873 26.175604 110.926224
180.211014 26.198895 110.938103
84.195892 25.739168 111.347771
84.183083 25.321342 112.575157
85.876381 26.510622 112.372528
85.960320 26.473085 112.122734
85.827332 26.365314 112.306046
86.446213 26.959486 111.918991
83.778419 24.564228 113.052361
84.759720 26.284086 111.130974
87.004494 26.624510 111.511192
104.476486 29.406765 104.272499
104.157677 29.657946 104.765343
105.435310 30.019657 103.781281
105.400276 30.021683 103.793594
105.475143 30.046814 103.805916
105.431259 29.547398 104.214775
112.626175 30.163725 102.713623
114.574280 30.242323 102.893204
114.408691 29.555754 103.010040
114.102982 29.515596 103.108093
114.219528 30.089205 102.275238
114.108528 30.254135 102.259727
96.610939 27.630634 107.755104
96.513306 27.870590 107.700729
96.687996 27.706524 107.795326
95.915596 27.795963 107.409966
100.718292 28.714170 106.230034
100.909515 28.006004 107.135025
100.746361 28.408541 106.094666
101.312256 27.782511 106.828125
98.573517 27.552984 106.844833
101.755768 28.961720 105.740242
101.974785 29.177246 105.839523
102.459312 29.282406 105.899704
101.591125 28.099228 107.315720
102.489044 28.895580 107.176247
103.834404 29.708185 105.505943
103.873878 30.075159 105.999245
125.910782 30.031382 106.103767
125.856087 30.121593 106.100822
125.744987 30.237230 106.180786
125.833588 30.075043 106.233192
171.964432 27.315451 107.611816
171.193115 27.882866 107.676422
171.233002 27.928576 107.698868
171.368729 27.763123 107.741547
171.409790 27.863342 107.694160
172.864746 27.022457 107.168762
173.877884 27.013088 107.459091
173.813202 26.941229 107.526512
173.844223 26.948650 107.514732
173.892731 26.992085 107.459824
94.595795 27.796505 109.011818
95.007263 27.826447 108.702393
94.633156 27.713104 109.193527
100.896095 29.284792 110.970345
102.153725 29.211437 109.017700
103.458961 29.084354 109.495399
102.066170 29.336756 110.354179
102.183922 30.072237 108.826630
102.911766 29.766188 108.001564
102.332428 29.547165 108.300552
104.003471 29.523285 109.348869
100.256874 28.989080 112.048058
100.330238 29.040016 112.256233
100.526062 29.560120 112.400238
100.304298 29.152002 112.174568
101.937263 29.744036 111.250961
101.974892 29.750229 111.279968
101.644936 29.683378 112.080933
184.249161 29.597942 113.720505
183.906952 29.639952 114.207886
114.555496 33.316376 98.872948
114.335785 33.247807 98.786034
114.698448 32.569057 98.666061
109.971870 32.390202 100.996460
109.952110 32.340805 101.014648
109.957703 32.385769 101.000481
109.947968 32.374649 101.022545
109.965286 32.419361 101.000648
114.625679 32.592445 99.158707
114.848328 33.039661 99.267593
114.283127 32.632153 99.088264
123.833984 32.031452 99.755783
123.842323 32.049675 99.791969
123.851761 32.029427 99.788834
123.826431 32.044880 99.769279
123.839630 32.024479 99.770531
128.475555 31.567131 101.724495
129.254562 31.379845 102.011253
128.680923 31.647598 101.308823
129.190613 31.265139 101.693092
129.238754 31.824923 101.425629
107.021782 31.585293 104.322433
107.650650 31.476339 103.454620
107.694702 31.408833 103.437279
107.959953 31.721786 103.440399
108.297424 31.805973 104.099037
108.549988 31.554516 103.314087
109.919289 31.505533 103.871880
113.220261 30.443371 103.465279
112.285316 30.910656 102.780350
112.231186 30.882612 102.750412
111.610039 31.346214 102.747719
110.869682 31.953606 103.980736
110.638008 32.087826 104.106880
110.589546 31.856796 104.166458
110.824341 31.890629 104.037025
130.860641 30.538391 103.884705
130.882141 30.508682 103.946465
130.916809 30.504070 103.921562
130.919861 30.516031 103.935966
128.731247 31.830351 102.114494
130.884216 30.501711 103.975502
180.817337 30.955414 103.710274
180.783966 30.971752 103.730965
180.823456 30.907330 103.768776
180.791901 30.945408 103.736244
180.799164 30.964689 103.739540
104.373802 30.723551 106.551857
106.625870 32.274776 105.734833
106.683029 32.301163 106.053047
106.428238 32.298340 106.084946
106.454697 32.118851 106.337982
104.676163 31.068029 106.695412
105.053642 31.040518 106.723267
104.817505 30.885435 106.610863
106.295433 31.459888 105.371094
125.454567 31.227110 106.709404
123.944618 33.088593 107.820259
123.959694 33.040382 107.771545
125.304199 31.371582 106.784180
125.353760 31.442509 106.809036
129.266327 32.849274 107.962364
130.348526 32.829269 106.155228
130.293350 32.816887 106.052414
130.041794 32.388359 106.800224
129.577881 32.694603 106.705124
131.088760 33.182442 106.570831
228.667679 32.048042 105.513557
229.937897 32.010494 107.757584
228.958466 31.789021 107.696739
228.822235 32.155952 105.571075
229.893402 31.767576 107.808472
229.914825 31.802765 107.760498
228.931320 32.190063 107.378990
103.233002 30.643133 110.076897
103.771957 30.774513 109.455551
103.818146 30.599922 109.862114
104.086838 30.496418 109.213882
123.784470 33.302509 108.007179
123.675102 33.237976 108.236351
123.357529 32.930332 109.750595
125.380478 33.109840 110.351845
125.340904 33.136360 110.349167
125.313354 33.154495 110.320145
127.603256 32.660976 110.746468
127.632034 32.677563 110.733223
127.651787 32.649948 110.753975
126.386002 32.897610 110.137772
127.408836 32.865093 109.405930
128.246094 32.292728 109.191765
129.022247 32.775188 108.938171
128.978180 32.859863 109.106110
128.773270 33.064560 109.310989
229.230011 32.070889 108.063377
123.246071 32.924934 111.079750
123.370300 32.986576 111.257950
123.468559 32.915771 111.245392
126.651344 33.078220 113.522202
126.299522 32.964809 113.295349
126.048393 33.086571 112.604874
126.911949 33.044865 113.329170
185.101028 30.453485 113.496788
185.713394 30.386305 114.074928
183.895920 29.736404 114.467003
183.897476 29.866667 114.573601
184.971893 30.285496 114.993172
185.446823 30.817951 114.237885
185.743103 30.361027 114.142662
152.991089 32.551006 147.615997
153.305664 32.801338 147.696991
153.157913 32.910469 147.796982
118.874908 33.337608 93.362289
118.869194 33.309246 93.351265
118.869850 33.338516 93.327408
118.842239 33.319561 93.337715
118.845726 33.345119 93.355721
241.531204 33.180973 95.542992
241.821213 33.723419 95.901428
241.132339 33.799015 96.948532
240.003784 33.356007 95.994919
240.042038 33.598698 96.059402
241.852570 33.337139 96.476028
239.907532 33.330105 96.163910
240.218567 33.155750 96.724289
241.904373 33.291363 96.036850
219.505096 35.275311 103.315865
219.651672 35.343224 103.729279
219.061417 34.932182 103.919067
219.341660 34.668785 103.208122
219.387329 34.698586 103.161369
219.309097 35.004711 104.025833
225.507584 35.450466 102.043571
225.487793 35.450703 102.012619
225.512436 35.446861 102.030304
225.943665 34.661858 104.889717
226.008133 34.977959 102.919090
225.954086 34.694912 104.793221
225.905396 34.687851 104.879868
225.712463 35.036983 103.193413
225.428360 35.035763 102.196770
228.096100 32.646809 104.873543
228.079742 32.634686 104.886635
228.079178 32.634315 104.895424
129.849365 33.937824 106.605354
131.019821 34.531094 106.891800
131.833633 34.974495 107.459869
133.144394 35.558773 107.532715
133.521530 35.620438 106.533463
133.888443 35.523880 106.305603
134.145721 35.474026 106.259537
134.312439 35.869503 106.147202
135.048386 36.232876 106.707382
135.615738 36.118439 107.061615
135.916061 36.049171 107.009918
137.158279 36.194653 106.999908
137.503632 35.989201 107.138351
137.831116 35.939583 107.698036
137.743530 35.934666 107.430557
145.100586 36.207905 107.372231
150.253998 35.881348 106.467369
150.247269 35.851662 106.475212
150.249161 35.873650 106.435997
150.249359 35.890488 106.472908
150.247604 35.865799 106.469933
182.463699 33.527760 105.224159
182.437088 33.578766 105.179848
182.546906 33.625057 105.227440
182.422089 33.590267 105.265968
184.102859 34.658989 106.545380
183.014954 34.220352 105.492867
184.095490 34.666103 106.555511
184.055191 34.644997 106.519897
184.063217 34.650883 106.532578
226.356461 35.572918 106.481628
226.336212 35.626282 106.562019
224.661606 35.180439 105.511475
226.203491 34.624081 105.870888
228.729019 32.751957 105.072693
123.983047 33.437557 108.496231
123.265968 33.569763 110.536674
130.664352 34.338799 108.034363
130.818329 34.421940 108.066948
130.740417 34.391354 108.086609
132.756607 34.713455 108.142982
132.989380 34.243210 110.760887
133.021088 34.373821 110.286453
132.839493 34.683437 108.252190
134.253220 34.701118 109.183304
133.140671 34.514797 109.111862
134.505814 35.181702 109.950943
133.225662 33.731903 110.753609
136.790680 35.360363 110.199814
136.735092 35.385548 110.221146
135.024673 35.499123 108.355957
135.872894 35.554905 109.338531
134.906128 35.328480 108.834763
135.910919 35.245075 110.472183
136.865097 35.927994 108.945053
139.014191 35.213997 109.986206
138.508911 35.425320 109.670975
139.518112 35.010197 110.306267
139.550507 35.002541 110.311272
139.499939 35.022606 110.292656
137.821716 35.854248 108.259369
143.142868 34.110596 110.347641
143.067810 34.079208 110.480782
143.132111 34.017742 110.668488
143.258530 34.487217 110.688934
143.905655 34.549377 110.305305
143.889954 34.602077 110.290413
151.678207 36.143265 108.988892
149.843246 35.379852 109.901482
149.814514 35.350647 109.914902
149.809021 35.400368 109.928596
150.303268 34.755810 109.512535
150.577393 34.723137 109.807777
151.157166 35.142128 109.320496
151.716919 35.993721 108.805237
184.668564 33.926910 109.221626
184.343246 33.316875 108.212402
184.208099 33.292091 108.225739
185.156372 34.229935 109.541016
185.465851 35.839291 110.143066
184.387726 33.622402 108.259735
184.313812 33.303612 108.395210
185.569366 35.206360 110.798706
185.506516 35.237629 109.854073
185.587280 35.196331 110.781090
185.572571 35.246754 110.786766
124.035019 33.410187 111.311401
126.453873 33.523197 112.960732
127.015884 33.354660 112.687012
133.964432 34.122536 112.081009
133.297821 34.451897 111.606239
134.107101 33.737938 111.938339
136.102539 35.115170 112.684044
134.599747 33.765934 111.209023
134.851288 34.678814 112.079292
135.767288 34.296940 111.809364
136.322632 34.585594 112.903320
136.977371 35.116165 112.956398
137.225266 35.061687 112.851700
137.755829 35.162899 111.200966
139.976425 34.674126 112.534317
137.635895 34.578884 112.047325
137.807068 34.761684 112.186287
140.326111 34.534016 112.904785
140.202728 34.858295 111.640121
140.568237 34.334351 112.605186
140.546432 34.311989 112.614090
140.643326 34.430332 113.831596
142.439453 34.620129 114.021713
142.368881 34.782509 113.908943
141.859222 35.368267 114.792252
142.550323 34.636444 114.201553
141.690308 34.767780 115.371330
141.697189 34.759628 115.375511
141.648407 34.330444 115.200829
152.227798 33.466450 146.859558
152.917160 33.604263 145.938950
152.688950 33.505512 146.010300
153.229355 33.153156 145.909912
153.340729 33.095467 145.994659
152.941132 33.169544 147.806564
160.233292 36.319786 100.943977
160.263000 36.348202 101.555702
160.519943 37.226276 100.783356
160.868805 37.108765 101.433487
160.967010 36.746426 101.115753
160.329422 36.577660 100.671562
165.352798 36.178150 101.820778
165.239975 37.277794 101.653366
164.825317 36.295876 101.738068
165.496170 36.246151 101.745064
165.313553 36.774883 101.283501
164.733124 36.764381 101.614906
220.861526 38.616714 100.932487
220.162125 38.041645 101.655891
220.176422 37.954014 101.639259
220.179077 37.984680 101.638390
220.171295 37.968880 101.642662
223.042114 37.956524 99.798096
223.135803 37.562183 100.098732
223.193451 37.430290 100.135994
222.216858 38.030502 100.106720
222.315170 37.928726 100.350029
223.004852 37.307446 99.912758
157.714661 38.019512 104.332642
157.907181 37.535034 102.154648
156.246170 37.513935 104.478172
156.362961 37.624279 103.754150
158.307983 37.617249 102.093300
156.367844 37.284851 104.456841
157.471481 37.077663 102.603615
157.651581 37.102146 102.463371
156.618317 37.535648 103.205360
159.432831 37.537746 103.873550
159.411606 37.730461 102.339851
160.607864 38.137318 104.226059
158.761902 37.610088 104.486519
159.245010 37.667004 102.055183
160.049973 38.121021 104.018845
161.638474 38.180408 104.900780
166.499451 38.068642 103.215630
165.121246 37.683140 103.961082
166.943802 38.326412 104.924980
166.664474 37.481495 103.339714
165.125656 37.708927 103.957893
165.190079 37.870857 103.565666
165.473206 37.739204 104.830200
166.817078 37.736969 103.313782
169.331299 38.488861 104.745934
169.330017 38.470566 104.684059
169.418182 38.540958 104.789108
168.023712 38.364601 104.072937
167.988724 37.925320 104.076378
173.652573 36.461285 104.381653
173.654099 36.459908 104.368721
173.664047 36.469265 104.367043
173.597977 36.555729 104.850151
173.650391 36.477291 104.345421
212.064331 38.734978 104.901451
212.709732 38.387695 104.769142
145.313675 36.719284 107.066177
145.245102 36.631611 106.984787
145.241470 36.611420 106.964775
145.204269 36.662186 106.993217
157.174194 37.959141 106.431313
158.326736 37.782543 105.810028
156.249344 37.597569 105.028038
157.188095 37.910042 106.406342
157.168015 37.983841 106.411896
157.181534 37.921978 106.427643
160.100632 37.310642 105.217056
159.510056 38.055752 105.558052
160.283600 37.628422 105.634361
160.917343 38.789520 105.883087
161.391846 39.013283 105.137009
162.293045 39.020348 106.008530
162.580688 38.169109 106.016235
163.316650 38.231548 106.394783
163.712189 38.441177 106.685127
161.898193 39.012238 106.001419
164.495651 38.608059 106.715919
164.524536 38.347813 105.495956
165.993622 38.740223 107.300606
167.109024 38.209667 107.037262
167.432190 38.209076 105.589096
164.727524 38.856453 106.595459
165.397507 38.488731 106.321518
169.855225 38.757988 107.787575
168.275635 38.354015 107.195793
167.571609 38.265678 106.095886
168.806259 38.687679 106.591988
169.682251 37.967457 105.644928
170.450882 38.326275 107.296646
170.183914 38.476269 106.128761
171.791916 37.610256 105.958054
172.230011 38.032169 106.588882
172.139771 37.604645 106.309578
171.766571 37.614399 105.963943
172.327744 37.262043 105.520622
185.455612 38.869835 106.680138
185.221695 38.876541 106.548012
185.096283 38.357643 107.244316
185.317230 38.150940 106.900818
185.023849 38.501415 106.398018
185.417114 38.189087 107.151299
202.075836 38.501728 106.836029
202.066437 38.534954 106.803452
201.705734 38.864243 107.224602
215.558273 38.735565 106.471962
216.907913 38.237602 106.635429
216.948517 38.241474 106.783524
216.687088 38.595264 107.095154
216.819016 38.748905 105.374161
221.432755 38.303589 107.763931
221.487228 38.180973 107.684807
222.105881 36.566822 106.649223
221.717606 37.256824 107.791435
223.116104 37.218784 107.025414
224.068085 35.836048 106.109894
224.071838 35.836891 106.110527
224.071060 35.843521 106.117630
223.494797 36.800186 106.708130
222.130539 36.563938 106.631844
222.175430 36.763092 107.035896
226.123840 35.768658 106.527000
225.944946 36.678341 107.882607
232.358734 38.546757 105.314445
231.971786 38.753719 105.288513
145.172607 36.307869 108.998306
145.447433 36.394421 109.499077
145.509354 36.407120 109.412659
145.426834 36.384491 109.482704
146.905365 37.628029 109.566696
147.306488 37.239006 109.525581
147.098511 37.261395 109.408455
146.906891 37.755657 109.487198
147.337234 37.057026 109.561539
152.396332 37.306316 108.330704
151.229675 36.725986 108.146919
152.564270 37.308884 108.392433
152.533157 37.321663 108.304283
152.543777 37.317169 108.297920
166.486877 38.734112 108.406479
166.661407 38.710434 108.698509
166.442474 38.770947 108.311737
167.408066 38.666489 109.152565
169.874725 38.752071 108.374237
168.153946 38.613731 109.095947
168.613815 38.566349 108.915527
168.577271 38.532219 108.926025
172.366028 38.647301 108.589844
172.440155 38.575375 108.510185
171.083603 38.553795 108.798767
171.138138 38.662960 108.822899
172.540863 38.349854 108.051437
172.376694 38.667793 108.608788
186.145996 37.136757 110.468307
187.341721 38.756584 110.507652
186.328262 37.853237 110.383141
186.345734 37.810814 110.437012
186.346603 37.814636 110.400986
215.182343 37.593933 108.823860
215.470520 36.612343 109.090187
215.044464 36.824081 109.064705
215.060226 36.800686 109.042831
215.517944 37.162075 109.535965
218.543732 38.478413 108.202766
216.383713 37.730789 108.589096
216.378677 37.718712 108.601402
218.323578 38.197044 108.093437
218.314194 38.406696 108.116898
218.534821 38.470631 108.877388
219.892075 38.093979 109.586174
219.737152 37.490303 108.785561
220.141449 37.971291 109.503502
220.602203 37.915085 109.234123
227.376175 36.475952 108.411728
227.233597 36.576759 108.815758
226.135742 36.971146 108.583115
226.883026 36.694733 109.045929
226.144836 37.024109 108.492630
227.138306 35.933346 108.159424
145.219666 37.270145 126.015862
145.372498 38.030083 125.982826
145.655914 37.539356 125.753464
145.719482 37.210686 128.077271
146.210480 37.138317 128.552780
145.362625 37.280590 127.611557
145.045166 37.917805 126.791603
145.800659 38.289810 126.330269
147.688248 37.445724 127.947670
147.333908 37.375645 128.650726
146.531555 37.080688 126.340340
146.762604 36.533428 128.524582
147.010681 37.198189 126.716606
147.797882 37.132214 127.936371
147.645279 36.716038 128.239059
143.793686 39.237457 11.138735
143.672852 39.309959 10.819512
143.537979 39.696953 11.335517
244.658600 40.528107 92.202545
243.007172 39.138599 91.174553
243.077133 38.827316 91.438759
243.086243 39.509521 91.164810
244.650803 40.544273 92.210945
244.114258 39.839870 92.519608
244.656433 40.539364 92.198700
244.649155 40.546394 92.204018
243.077316 38.825996 91.433083
243.075363 38.826015 91.441750
220.198532 39.446114 101.183800
220.244308 40.688763 100.375984
221.131012 39.992714 100.018677
220.160980 40.498264 99.983109
220.407013 41.269623 100.092178
220.707535 41.097469 99.237015
221.136032 40.192772 99.911903
206.525238 40.736034 102.677414
206.531082 40.738964 102.654892
206.552063 40.746334 102.680779
206.540451 40.757412 102.645935
206.517990 40.765572 102.680672
212.023300 39.055634 104.517876
212.273422 39.008636 104.274521
212.217743 39.242676 104.359215
189.659775 39.636391 106.646492
190.005920 39.637962 105.863800
190.005402 39.640820 105.879326
191.491959 40.150040 106.173561
189.989761 39.678318 105.875031
189.656296 39.601532 106.619095
192.390625 39.786964 105.740135
193.739243 40.285381 107.900963
193.740631 40.289719 107.900360
194.213486 40.911396 106.555168
193.058167 39.860325 107.802460
192.395538 39.792767 105.738121
192.401108 39.789150 105.743011
192.451385 39.824112 105.746407
194.206055 40.902756 106.560860
194.401672 41.115112 106.412239
195.050323 41.914646 105.661133
195.884399 41.985634 106.256340
201.820862 39.352562 106.792770
202.424484 38.960735 106.522179
202.995880 39.267559 107.386337
214.057724 39.231323 105.857872
214.675583 39.171841 105.403473
213.071365 39.801353 105.202644
214.051758 39.229465 105.854874
213.648590 39.069260 105.907776
216.381195 39.131783 105.140633
216.388107 39.126053 105.133690
216.215637 39.274380 105.169800
232.469223 39.221397 105.890526
232.612900 38.943619 105.356560
231.997177 38.808128 106.090698
232.132217 38.810890 106.086586
188.030426 39.432137 110.526375
188.071167 39.919125 108.275650
188.135376 39.930214 108.240257
187.054642 39.082901 110.350922
187.965485 39.916397 108.349854
187.409637 39.602318 108.864372
187.285934 39.345795 108.950378
189.846848 39.966305 109.726318
191.187607 39.997082 108.901215
190.096848 39.970596 109.642960
190.806015 39.909164 108.761154
189.545578 40.019836 108.085129
189.849777 39.972504 109.714699
192.112991 40.159271 108.848198
192.127167 40.162243 108.838654
193.394699 40.317612 108.644600
193.460876 40.664097 110.226318
193.881622 40.569374 110.738678
193.914505 40.753719 110.876160
201.020828 41.564335 108.740303
201.039627 41.806107 108.557579
203.284637 39.877861 108.112221
203.225113 40.424881 109.212952
203.233765 40.431431 109.192642
203.220612 40.491825 109.205101
203.253281 40.346661 109.218529
202.037094 40.316643 108.221931
201.018250 41.917660 108.549568
201.011963 41.921719 108.721817
201.068588 41.915977 108.774277
219.957489 38.778584 109.222313
221.583755 39.611866 108.791656
222.718979 38.936588 108.112457
222.696869 39.845016 108.699959
222.395264 39.867916 109.003052
222.433914 39.877693 108.983299
222.804779 39.181038 108.837021
229.186554 39.966957 110.526443
229.111572 40.038822 110.956764
229.477264 39.600544 110.673126
230.815933 39.080654 109.041779
230.839737 39.121346 109.031952
230.814011 39.009228 109.229523
230.786575 40.015896 109.052887
231.250626 39.930737 109.442421
231.188339 40.034451 109.636467
191.308731 41.160919 112.375137
190.468430 40.619762 111.320145
188.622787 40.016052 111.404732
188.844864 39.885777 111.686295
189.396683 40.411873 112.245720
189.381088 40.395851 112.234886
189.407089 40.405716 112.247459
191.518829 41.102745 112.469284
191.579407 41.121185 112.451393
192.568787 40.178169 112.143753
193.859451 40.588379 111.518433
193.797958 40.329937 111.493027
192.249695 40.557392 112.458900
192.363937 41.004559 111.083839
229.150345 40.571766 111.115784
230.495560 41.090904 111.574692
230.320541 41.362675 111.050629
229.332535 40.363834 111.410278
238.345032 41.435555 114.043991
237.750183 41.602341 113.836517
208.015198 41.057095 122.945740
207.806137 40.737850 122.895859
203.970596 40.481697 124.098984
203.853058 40.236084 123.907387
205.247620 40.624752 123.679443
205.259644 40.651833 123.522957
204.785995 40.266018 123.106453
204.131393 40.345718 123.155434
204.114700 40.578106 124.200005
207.977646 40.998390 123.513229
206.988785 41.088131 123.276329
207.970490 40.704018 123.361366
207.425674 41.400494 123.305199
230.761703 42.054085 84.757805
230.700882 41.932388 84.932526
230.747818 42.090755 85.003967
230.655945 42.000652 85.024635
243.736542 43.054741 89.820160
244.422409 43.235207 90.097481
244.623917 43.150928 90.681183
244.644516 42.589634 91.080086
244.644409 42.569656 91.084686
243.255157 42.446766 90.229065
243.397247 42.176247 90.221458
243.470016 42.091648 90.243500
221.179398 44.358757 98.258896
221.174728 44.369701 98.226379
220.637970 43.368706 98.778305
221.187485 44.364407 98.223381
221.158005 44.350769 98.219315
221.314484 42.612186 99.055260
221.328720 42.620193 99.030144
221.306702 42.609386 99.026970
195.846390 42.194580 106.009216
195.841949 42.203407 106.009758
195.838821 42.203289 106.008987
200.082565 42.026169 113.535744
199.863174 42.895744 113.225716
199.873581 42.869247 113.326859
199.989044 42.437687 112.991074
199.803894 42.423336 113.883858
200.128387 42.119820 113.715126
232.027008 41.838512 111.639565
231.125778 42.119541 111.676582
231.909805 42.139912 111.376144
232.009735 42.003113 111.644020
232.018326 41.892097 111.635849
238.755585 42.317104 113.436531
238.773911 42.327152 113.387108
238.974075 42.450798 113.910774
237.434250 42.412182 113.928665
232.693054 43.063946 115.063339
232.919373 42.710735 114.837860
233.097672 42.067436 115.688087
232.904831 42.712288 114.840569
232.930069 42.719772 114.832115
234.865082 42.536308 115.421921
235.911240 42.362125 116.467941
236.546417 42.376179 115.511909
236.546158 42.373196 115.508507
236.042221 43.007698 116.012352
234.532913 42.170544 115.678658
234.910339 42.872456 116.958321
238.675720 42.376427 114.573280
237.263138 42.270824 115.104355
232.732101 43.414761 117.063393
232.722595 43.400890 117.057693
232.754517 43.456207 117.060539
232.758575 43.438370 117.063026
234.602020 43.014790 117.071655
234.341110 43.220760 117.136002
233.286209 46.674107 98.081421
233.239502 46.707333 98.950256
233.412552 46.866024 98.884247
232.730682 46.780163 98.314560
232.743668 46.654140 98.335754
233.518082 47.079319 98.459221
206.731949 46.178860 109.438629
206.746765 46.160477 109.403984
206.760406 46.227150 109.400116
206.775726 46.254387 109.398842
206.747971 46.200451 109.421967
133.609802 57.692791 151.995224
133.582138 57.774254 152.181961
133.594269 57.665382 152.224564
133.666611 57.592617 152.391312
220.450104 128.507080 121.225517
219.942581 128.416977 121.172173
220.497162 127.800827 120.765030
