ply 
 format ascii 1.0
 comment particle cloud from Fluids_v4
 element vertex 1000
property float x
property float y
property float z
end_header
127.201187 71.080803 107.431236
128.010330 70.888153 106.887863
128.615906 70.796562 106.847008
129.249008 71.136330 107.531090
200.396149 71.386467 107.619942
201.033585 71.210144 107.284630
100.083061 74.384514 101.475769
100.694977 74.176430 101.189499
100.379318 74.376846 101.211441
100.204086 74.385437 101.842880
100.516586 73.672943 101.664253
161.651276 73.944038 100.931381
161.135651 73.240616 100.630226
160.276505 73.343468 101.705307
161.206406 73.242569 100.637451
161.971924 73.612015 100.789337
162.123444 73.037933 101.262253
162.179031 73.189163 101.921852
179.321625 73.849037 101.640419
179.056824 73.747940 101.750984
179.074326 73.592628 101.628021
180.708267 73.022415 99.945770
181.191528 73.398674 100.224457
180.439255 73.504501 99.693817
180.458603 73.521042 99.679810
180.555634 73.885483 101.080391
181.172638 73.422607 100.229706
209.203537 72.791748 101.881378
208.564392 72.510460 101.981026
211.669510 73.182083 101.790398
212.708252 72.426872 100.677559
210.954285 72.935188 101.095955
212.203232 72.665321 100.360847
212.748810 72.425919 100.724236
212.752808 72.387352 101.061981
212.491425 73.249077 101.053566
211.004944 72.810577 101.884987
225.918777 72.925232 101.382721
227.143524 72.896461 101.181343
226.072769 72.907516 101.344048
227.604721 72.999237 101.302513
233.620651 72.631393 101.778633
233.030945 73.247025 101.952255
255.716843 73.397148 101.810524
255.718506 73.437256 101.843895
255.708740 73.407219 101.831886
255.531189 73.462059 101.892624
260.980652 73.188766 101.835854
261.496613 73.488319 101.409302
261.498718 73.425980 101.377129
261.226105 73.484283 101.451263
269.358276 73.047928 100.942307
268.866302 72.616592 101.682823
268.929504 73.182915 101.399895
269.413422 73.510239 101.268005
269.362244 73.069008 101.057571
270.836914 73.209953 101.832649
272.979675 73.199120 101.817764
273.070465 73.532997 101.860207
287.269012 74.560501 99.759827
287.263763 74.325325 99.558777
287.212524 74.431244 99.487350
287.055328 74.264870 99.711014
290.587067 73.781685 101.438644
290.561249 73.741219 101.462074
291.104614 73.722099 101.137688
291.365570 74.046494 101.537392
298.274414 72.746674 100.869980
298.224274 71.790428 100.338585
299.134674 72.209045 100.804230
299.091980 72.463562 101.410973
298.198578 71.646271 100.500267
297.583160 71.919159 100.991158
297.212921 72.347023 101.933907
298.959961 71.638542 101.540291
100.797356 73.907349 102.097954
101.741745 73.015160 104.223618
102.996712 72.901077 102.047653
103.094429 73.047958 102.050346
102.517380 72.735420 104.557343
102.949860 73.035194 102.190338
102.950821 73.186569 102.120422
102.290817 73.455444 104.364594
102.161804 73.380821 104.033569
103.075607 73.073074 102.125366
107.600632 72.948563 102.344131
107.668961 72.963821 102.369690
107.614403 72.950089 102.375267
107.604668 72.961609 102.381645
110.199257 72.694214 104.724823
110.510597 72.752426 103.003410
109.401451 73.025185 103.829239
108.917061 73.032043 103.553101
110.731812 72.460411 103.047096
110.452446 73.283424 103.464569
108.460922 73.218338 102.810318
110.778511 72.273514 103.176537
111.194275 71.604134 104.451355
112.057930 71.828888 104.344467
113.898033 71.922997 104.711899
112.158150 71.839859 104.382103
113.888908 71.931755 104.714699
115.832558 72.352089 104.023148
114.820610 73.377220 103.533676
115.585838 74.119675 103.620171
116.155464 74.074028 103.620499
116.367859 73.702568 103.486397
114.334061 73.465149 104.487961
114.951660 72.932793 103.424698
116.309792 72.483833 104.302940
120.588562 73.088860 104.207542
122.577377 73.036957 102.956528
120.557831 73.103416 104.187515
122.467155 73.102394 103.011848
120.573975 73.102722 104.236382
120.608772 73.103249 104.243721
122.727905 73.038246 102.815071
122.582451 73.050278 102.824730
120.595985 73.133362 104.208031
124.238258 72.876595 103.548645
125.282913 73.185829 104.853226
123.759789 72.608444 103.005844
125.423744 72.716438 103.740707
125.262405 71.997429 104.630264
124.058174 72.501884 103.800621
127.615700 73.206963 102.708260
127.600761 73.306419 102.704445
127.616539 73.310150 102.695404
127.344849 72.659912 103.443550
126.615883 72.682159 103.412033
127.128624 72.467087 104.437782
127.248199 74.236732 104.966797
128.809982 74.188034 102.915268
128.700012 74.113213 104.835129
129.590286 73.299789 103.314980
129.882629 73.378357 102.933640
129.256134 73.894409 104.185356
130.665253 74.096313 103.114578
131.421234 74.355133 102.414734
131.237152 74.346390 102.390289
129.680511 74.413925 103.579811
133.054901 73.753593 102.950287
132.166870 73.840004 103.465485
132.368500 73.294167 103.152664
134.133148 73.188217 103.208069
134.840393 72.988670 103.053291
133.710938 72.942482 103.091164
132.272812 74.251259 102.648682
133.665085 72.413391 104.711586
136.815659 72.955330 102.452644
136.282043 72.776665 103.710747
136.363464 72.768715 103.694626
135.299149 73.324928 103.115494
136.099304 73.137222 103.620247
137.692001 73.388435 102.448776
138.102432 73.321388 102.458542
139.570877 72.595764 103.042274
137.970276 73.352280 103.305176
138.013260 73.171028 102.405899
140.035812 73.604080 103.056168
140.752945 72.637817 103.339836
139.577148 72.709435 103.295639
140.953506 73.233696 102.628868
143.299225 72.413483 102.781242
142.981400 72.354301 102.893173
143.029938 71.991501 103.866432
141.096863 72.993683 102.605202
141.099655 73.315674 103.113312
143.842178 72.832741 104.815880
143.321655 72.992912 103.220589
144.638351 71.679024 104.245811
144.858612 71.787247 103.848251
144.689072 72.588478 103.265190
146.768143 71.856163 104.766975
146.513168 73.068474 104.349556
145.792343 72.899994 104.733253
143.975250 72.304108 102.710030
147.033691 72.897110 104.086426
148.413986 72.571053 103.347519
147.834900 72.770592 102.818886
148.327240 73.024010 103.014908
148.368073 73.029510 102.993309
147.937515 72.862534 102.836075
151.995712 72.571068 104.810295
151.517410 73.018875 104.854088
151.459167 73.004082 104.855774
154.360031 72.388107 102.797356
154.379868 72.379539 102.794449
154.907013 72.512283 103.500511
154.294739 72.409805 102.825172
153.672729 72.932648 104.171555
154.378265 72.269920 102.826355
158.805389 73.459885 102.068962
158.626419 73.120522 104.189240
158.194931 72.169235 102.562187
158.734177 71.880447 104.467064
158.498123 73.507820 103.268829
157.915985 72.775078 102.429077
158.703262 72.461891 102.110977
157.803528 72.462448 103.293777
158.731659 72.112091 104.793854
161.058777 72.335770 103.689980
159.395950 73.504730 102.076988
159.897552 71.650017 104.541626
160.982803 73.515938 104.476898
160.335175 72.840302 103.157104
161.221680 73.428986 103.496674
161.854843 73.224785 102.763382
163.940857 72.571655 104.902466
163.912155 73.122734 104.680290
162.444626 72.740738 103.991188
163.953690 72.905312 104.574074
169.108627 73.175179 104.192078
168.485413 72.670273 103.809372
168.515106 72.604073 103.643608
170.504852 72.936455 103.457680
168.870499 72.313881 103.307228
169.542236 72.277199 103.165916
168.863144 71.942940 104.442307
173.648636 73.233406 103.160324
173.968369 72.512291 104.805290
171.835617 72.704834 103.705032
171.289993 72.450089 103.491783
173.327057 72.202812 103.120407
173.601456 73.164230 103.064407
171.583176 72.361740 103.044670
173.460892 72.765221 104.068840
173.375961 72.857887 102.803719
171.368256 72.761894 103.099785
175.893448 73.272583 103.358322
175.379990 73.348579 104.560692
176.151840 72.987579 103.174019
176.471252 72.751854 103.936966
175.445480 72.266548 103.589088
176.195969 72.956345 103.164871
177.930695 73.989777 104.566010
177.593353 73.686440 104.752380
178.532745 73.119568 104.910522
178.338760 73.085228 104.954735
178.378433 74.011703 104.301239
178.808807 72.618462 103.843071
178.972046 72.992310 102.462379
178.292847 72.827293 103.354477
181.637207 73.235107 103.273766
180.047150 74.133415 102.304352
180.152283 74.090652 103.195999
181.809799 73.481087 103.853912
180.308746 72.942680 103.872009
181.047470 72.740768 103.761765
181.716812 73.503235 103.689873
181.634918 73.473053 104.180084
185.228607 73.134598 104.575439
188.679565 73.407845 103.381432
188.662125 73.441429 103.399803
186.786407 72.427574 104.900383
187.244415 73.061066 103.738174
188.676315 73.948578 104.570297
188.635788 73.427063 103.369682
186.221802 72.939552 104.113731
187.371033 73.480911 103.621559
191.160965 72.810707 104.024551
191.789276 72.773750 104.342796
190.964310 73.396721 104.031311
190.462555 73.700134 104.584015
190.263168 72.603897 104.021576
194.017822 73.568787 103.398232
194.408966 72.740456 104.436234
193.355911 73.714775 104.984238
194.491562 73.840744 103.179008
194.609756 73.458252 103.085869
192.017349 73.364120 104.541222
194.997543 74.182762 103.806847
195.351456 73.579582 103.357216
195.806549 73.057976 104.186104
197.503647 73.033348 103.151154
197.833878 73.184258 103.047180
197.856796 73.208069 103.099556
197.867310 73.166534 103.166016
197.929001 73.056206 103.088974
201.160675 72.607483 103.230072
201.441666 72.901146 102.837067
201.988174 72.069061 104.767570
201.706192 72.875008 102.870972
201.454391 72.900543 102.834572
201.264542 72.880257 102.978897
202.609375 72.475525 104.326637
206.583588 72.751923 102.820061
205.670486 72.471947 104.232864
205.632477 72.457916 104.213661
205.966263 72.645241 103.567673
205.615494 72.465897 104.196465
206.503815 72.124275 104.181129
208.789993 72.962311 103.168015
208.444809 72.742142 103.425285
207.387390 72.363274 102.428093
207.981552 72.648750 103.603142
207.517899 72.677635 102.300957
210.083832 72.997231 102.178452
210.124496 72.997528 102.140938
215.570236 73.694099 103.277382
215.810486 73.649551 104.548538
215.838699 72.729637 103.616272
216.726624 72.269157 103.462990
217.039902 72.344376 102.902748
218.583633 72.216591 103.836403
218.381454 73.080467 102.423523
216.322144 74.021393 102.518860
217.903595 72.110985 103.941864
218.594101 73.331497 102.554703
218.473587 73.173424 102.436096
216.245224 74.106873 102.715225
216.461548 74.164291 102.644157
217.469345 74.074738 102.802414
219.931168 73.536415 103.627312
220.890579 73.489975 104.322784
220.239136 72.954330 103.230217
219.874191 72.284813 103.334099
219.935486 72.156517 104.497368
220.964310 72.939568 104.001686
225.790787 73.232071 102.068871
227.480530 72.374825 103.390755
225.893997 72.708450 102.508659
226.457428 73.694710 102.574837
228.021362 73.457436 102.881050
226.752045 72.433586 103.175369
228.291092 72.911354 102.024490
228.083679 72.473343 103.147621
228.283966 72.899437 102.761086
232.904953 73.197395 104.133690
233.210464 72.005638 104.562408
233.740540 71.945557 104.390137
232.699097 73.042984 103.222046
233.235565 72.027161 104.501022
232.876328 72.964226 102.124733
231.870178 72.757202 104.828629
233.969238 73.424164 102.021477
235.614899 72.202644 104.431694
235.269592 73.318794 104.688393
234.221054 72.908615 102.318672
235.877213 72.416206 104.621651
234.136734 72.874207 102.130051
235.659149 72.172028 104.577896
235.696594 72.102448 104.603256
234.702896 73.433517 104.677444
239.852402 72.572739 104.695541
241.071381 73.570503 102.738731
242.768463 73.136047 102.708992
240.990021 72.223633 104.144722
240.868637 72.218979 104.964508
242.275955 72.390244 103.011749
241.714767 73.358749 104.799812
242.514160 73.043617 104.370941
240.871872 73.558922 102.856201
240.487946 73.782143 103.363914
240.346817 73.931152 104.431732
240.994400 73.558594 102.783257
244.978058 73.225777 103.487976
245.988495 73.500603 102.681297
245.550171 72.726898 103.001648
243.096603 72.503014 103.207039
244.140961 73.141495 102.908546
245.636459 73.213303 102.168114
245.986450 73.242043 102.364197
243.329498 73.261406 103.068298
246.120087 73.372330 102.549232
249.240555 73.515701 102.103928
251.556534 73.141846 104.459358
251.888306 73.084457 103.710350
251.914490 73.607796 104.626152
249.111206 73.271706 103.206497
251.744415 73.154915 103.696053
249.177841 73.432358 102.266968
249.121826 73.491859 102.415504
251.906815 72.703285 104.336868
254.056351 73.107964 103.600449
254.332352 73.348953 102.697495
254.076782 73.266586 103.982971
254.883835 73.298088 104.035454
254.713684 73.275841 104.071419
252.200836 73.743477 103.933319
255.347549 72.599670 103.651550
257.237274 72.295837 103.888023
256.402008 72.733154 102.800003
258.563202 73.264709 102.884880
258.622467 73.088478 102.897606
258.163696 72.638321 102.815140
258.415558 73.106407 102.568199
258.189606 73.359322 102.709969
263.324615 72.623405 104.390533
263.470856 72.871971 103.260033
263.178558 72.771919 103.448181
261.262695 73.183273 102.353889
262.360199 72.801277 102.300133
262.446655 73.027000 102.814194
265.031006 72.257286 103.389839
264.702271 72.315468 103.207146
265.184540 72.168808 103.706001
265.112610 72.260620 103.477417
264.860138 72.189148 104.817101
268.285492 73.059555 104.102867
268.769958 73.198891 104.079636
268.662781 72.437042 104.808372
268.367706 73.080925 103.971748
269.134369 72.362503 102.602837
268.306915 73.103424 103.994461
270.468079 73.170692 103.233803
270.862701 73.024529 103.166679
270.908386 73.168159 103.087944
270.796509 73.180428 103.257256
272.424408 73.439301 102.474487
275.978119 72.815468 103.372223
273.918488 73.002068 103.220634
275.675629 72.360497 103.442047
275.742157 72.371048 103.479767
274.808502 73.387589 104.389992
275.452759 73.385612 103.142334
273.127594 73.698349 102.096054
274.161346 72.983414 102.158714
274.090332 72.606064 102.445450
278.416321 72.850388 102.864899
278.389862 72.921043 103.064285
276.119873 73.142479 104.531303
278.524811 72.633179 103.064919
278.399353 72.884750 103.045700
280.431763 73.585701 102.183792
279.744446 72.072624 103.024429
280.874329 72.994270 103.726097
281.144257 72.937065 102.618996
280.663849 73.067848 102.121292
280.547913 73.864967 102.496925
279.223999 73.850449 103.007011
280.437134 73.294914 103.930214
280.744049 72.624969 103.620178
285.176147 72.706444 103.383942
285.354828 72.687294 103.271561
285.958374 72.409462 103.592316
285.495514 72.370880 104.730705
285.435303 72.796455 103.217751
285.499573 72.760483 103.226250
291.240448 73.857071 101.978851
291.043579 73.748756 102.040001
294.371704 73.775734 103.688820
294.421448 73.455627 103.469795
295.757690 73.448868 102.791382
295.135071 73.091812 103.530144
294.168976 74.155991 102.484116
296.192017 72.464516 103.422707
296.569794 72.088806 103.269592
296.958588 72.861801 102.928574
298.860138 72.378571 103.688492
298.602264 71.581718 102.742897
297.047760 71.959808 103.883598
297.968170 71.495850 103.738495
298.920776 72.634064 103.935547
298.772308 72.547852 104.142052
298.752533 72.570770 104.085266
101.890678 73.057968 107.329735
101.965080 72.485130 105.041771
101.464920 72.424980 106.367729
101.299767 72.631912 107.324661
101.770828 72.293266 107.927750
102.112999 73.265396 105.244003
102.542046 72.274590 107.391953
102.160736 71.800804 107.033401
102.166138 72.237312 107.878395
105.221214 73.057182 105.493095
105.217010 73.051773 105.463394
106.326035 73.524101 107.149696
106.940323 72.677063 106.507256
105.773438 73.590126 107.085258
105.083984 73.581841 105.916557
106.167053 73.832520 106.905571
106.528923 72.522003 106.480270
105.172699 73.124207 105.509758
107.177307 72.982384 106.214020
108.875908 73.636948 106.157814
108.859398 73.617401 106.193184
109.821472 72.641075 106.158989
109.153061 73.634468 106.295776
108.861275 73.626793 106.186958
113.966965 72.691559 105.442749
111.463333 71.666595 106.212471
111.972939 71.861389 105.240425
113.564636 72.439827 107.809921
113.728661 72.439873 107.578156
111.116432 73.292336 106.273094
113.579147 72.965302 106.827301
111.218964 72.360832 107.216713
113.037552 71.647964 106.245743
111.420036 72.166199 107.280678
113.585526 72.445488 107.737167
111.643394 72.830833 107.475502
112.961075 72.372841 107.994255
111.093521 73.294785 106.255768
116.655792 73.884102 105.507858
116.522438 73.981163 105.505196
116.166939 73.991020 105.503349
114.251060 72.821190 105.346603
116.613747 72.820824 105.162949
116.999718 73.614983 105.314354
120.945320 72.892998 107.737137
121.134285 73.509827 107.858551
120.549347 72.933235 107.748642
124.978539 73.461258 107.177177
124.190231 73.375923 108.047775
124.388687 73.860695 107.977859
125.443581 72.658173 105.518951
125.362740 72.195717 105.220322
125.785797 72.161835 107.527321
126.508743 72.626083 105.856659
127.333847 72.430176 106.607384
127.332809 73.285110 106.145538
126.328987 73.179085 107.950890
128.220963 73.805527 105.643028
127.560432 74.382889 105.298897
129.335968 71.549507 106.786194
129.198563 71.759941 106.634552
129.048660 72.224251 106.936707
133.354111 72.331642 105.323029
134.586990 72.724846 105.607841
134.504868 72.577011 105.021523
132.871460 72.818718 106.393341
132.969208 72.888145 105.986343
134.677704 72.703255 105.715004
133.277008 71.757240 107.486160
133.123795 72.305084 107.922516
133.028900 73.079704 106.945717
135.565994 72.124870 107.459381
135.562180 72.076576 107.388779
135.551834 72.118324 107.477478
135.544617 72.310791 107.338043
140.333298 72.420860 107.023804
139.151825 72.656158 107.420578
138.705566 72.641579 106.714218
138.675064 72.669914 106.671402
138.743607 72.671082 106.769836
138.679977 72.657013 106.711823
143.261200 72.356369 105.805450
141.182434 72.474564 107.385345
141.048340 72.448380 107.398811
141.121597 72.393837 107.453339
143.934280 72.486191 107.718613
143.502533 73.217590 107.609390
142.896500 73.324402 106.370117
143.165482 72.876938 105.796074
142.680923 72.739525 107.962082
143.046051 72.687614 105.789345
145.667206 71.719345 105.020348
145.756577 72.274300 107.109169
144.569061 72.892799 107.228088
146.275223 72.749596 107.097145
145.576614 72.853676 105.981178
145.792801 72.294754 107.083450
149.433517 72.843040 106.734024
147.234726 72.558907 107.044701
147.648254 72.007866 106.577301
149.422195 72.983299 106.613220
148.461533 73.293129 105.941605
149.831467 72.630684 105.197266
148.364380 72.784340 106.925758
147.013657 71.710289 105.777588
149.828064 72.635475 105.195831
147.887650 73.060486 105.337730
151.849945 72.589226 106.884766
152.138016 72.734039 106.653442
151.111526 71.884552 105.439018
151.793335 72.466499 106.873878
151.888382 72.393967 106.843338
150.053116 72.074066 106.376434
152.773727 73.415359 105.490326
155.470459 72.330605 106.850861
155.864822 72.746429 105.400673
154.702118 72.693329 105.160934
155.795303 72.683563 105.373169
153.757629 73.170799 105.302887
153.814163 73.185089 105.281250
155.023087 72.300743 106.399216
157.042465 73.309631 106.069489
157.736069 73.304367 106.547760
157.623489 73.203094 107.777985
156.152512 72.913841 107.573006
157.709778 73.267120 106.582161
156.309402 72.010284 106.324547
155.967209 73.113297 107.363029
157.126480 74.466782 107.922249
157.294632 74.515190 107.977234
157.622070 74.511627 107.771454
160.598633 72.074707 105.362701
160.988525 72.713051 105.431183
160.137955 72.574623 105.482063
159.126480 71.991600 105.143013
163.921021 72.551125 105.253235
162.381958 72.811317 105.569885
163.163132 73.077080 105.688675
162.194107 73.522606 105.067230
166.302780 72.413422 105.891548
166.312592 72.450104 105.881256
166.334702 72.450829 105.873375
166.266586 72.444901 105.893585
166.281906 72.437592 105.857872
169.217834 72.187332 105.738365
169.282562 72.170311 105.979980
169.558563 72.490326 105.881195
170.868546 72.411591 105.882919
170.232529 72.809723 106.679047
169.802216 72.569801 106.705673
173.666672 73.168747 107.285690
173.683075 71.847313 106.399857
173.795288 72.577080 107.905998
172.440872 72.124908 106.503914
171.668945 72.112206 106.359459
171.376251 72.343597 107.419510
172.295853 72.150566 106.531342
175.231476 72.237534 105.545731
174.851242 72.020485 105.951599
174.809509 72.736397 105.891655
174.734375 71.836792 105.716393
179.524582 73.283623 107.229614
179.472198 73.282799 107.193558
179.504837 73.277649 107.189278
179.437347 73.278572 107.217751
181.739517 73.055794 106.415741
180.180832 72.686630 106.756683
181.706131 73.046577 106.397736
181.749268 73.058083 106.410599
181.553635 73.150726 106.379143
184.799545 72.891815 105.321640
185.059784 73.456520 105.040558
183.164124 73.369232 107.600288
183.147919 73.218307 107.606155
185.466965 71.857094 107.723343
185.174500 72.355286 105.263008
183.738632 72.991440 107.094093
185.445694 71.832848 107.860260
184.691345 72.624054 106.169815
185.844131 73.545448 106.531250
187.864212 73.369949 106.400009
187.630432 72.216011 107.523636
187.578445 73.671768 105.382225
186.792908 73.859016 105.123207
187.055389 72.300789 106.021362
188.359100 72.168236 107.586563
188.783554 72.314812 107.646515
186.790619 72.139587 107.577324
186.243149 73.232101 107.084648
189.187729 72.257187 105.534195
189.461472 72.313538 105.326645
191.072021 72.428413 105.834351
189.384766 72.669876 107.336899
189.751831 72.762566 106.918831
189.501389 73.424881 105.558601
189.433167 71.912224 106.783287
192.369629 72.273758 105.829010
192.199417 73.044922 106.600441
194.685028 73.393677 105.226715
192.162766 73.011749 106.456230
194.407837 73.512199 105.422104
192.804596 72.977112 106.818596
193.497467 72.955032 106.596207
193.823441 73.134995 106.332718
197.393341 72.764206 105.702965
197.239014 72.330978 105.755074
197.140411 72.251266 105.110863
197.173004 72.287361 105.142281
200.593155 72.722000 106.600143
198.821121 72.498199 106.065071
198.487518 72.778793 105.639214
200.191452 71.718529 107.564331
198.774796 72.143684 106.086670
200.737854 71.681343 107.841087
199.370865 72.091530 106.779121
201.770309 72.222443 107.294472
202.593414 73.167099 105.358055
202.001007 71.746498 106.489029
202.582291 71.805222 105.512878
201.471771 72.859718 106.248528
202.933182 72.936485 105.355843
202.907608 72.938477 105.361824
208.604309 72.455208 106.809738
208.755859 72.172691 107.334610
209.899414 72.011497 105.923790
208.962051 72.252007 107.488304
209.148834 72.985748 106.657112
208.790634 72.204857 107.349785
212.400497 72.268684 106.411331
211.271194 71.799652 106.217201
210.749481 71.689789 107.108170
211.647522 72.313477 107.290489
211.724319 72.287819 107.231529
210.133240 72.849533 106.129379
210.475891 72.134750 105.858475
212.597549 73.150513 107.005768
214.414612 72.222374 106.844887
213.547119 72.564232 107.623878
214.024017 72.330856 106.158737
214.481964 72.357994 106.247368
213.901840 73.422691 107.333397
215.824524 73.134132 105.262512
214.670700 73.388184 106.427597
213.916107 73.453705 107.297577
215.903473 73.568222 105.196648
218.615952 73.470306 106.086777
216.837311 72.219223 105.051788
216.796448 73.277641 105.823029
217.719360 73.319389 105.797852
217.811142 72.802551 106.443802
218.052444 72.245483 105.507034
220.648285 73.529823 105.135811
221.357224 73.488838 106.312546
220.685089 73.280357 107.711243
219.143967 73.246384 107.182472
219.373199 72.970596 107.352859
219.380844 72.350632 105.435188
220.196045 72.459595 106.500069
221.161346 72.447998 107.786812
219.465958 73.381264 107.226883
221.492065 72.934761 105.302795
222.611359 73.011063 107.915192
223.208084 72.943108 105.824867
222.775345 72.950378 105.676430
223.232376 72.897964 105.836403
223.134033 72.876633 105.866882
223.092911 72.443695 107.190704
227.331573 72.151344 106.169983
226.605133 72.501060 106.057442
226.696686 72.731003 105.546486
226.556061 72.641365 106.025276
226.582001 72.501434 105.986183
229.715775 74.405968 105.824661
228.885986 74.218010 106.834221
230.051331 73.860130 105.129288
228.357346 73.635803 106.916496
230.230499 72.648773 105.980728
228.467407 72.578339 105.557060
228.129166 73.370399 105.402115
228.891998 73.300255 107.150642
229.503525 72.971024 105.069893
230.395401 73.526237 105.067589
229.720810 73.700272 107.141182
229.806442 73.905785 107.039291
233.185028 73.117409 107.034248
233.010605 73.482445 105.144264
233.049637 73.202896 107.004738
232.169235 72.745621 106.059181
233.620178 73.570488 107.209526
231.172241 72.875244 105.400833
233.104843 73.195206 107.014816
235.771652 73.420227 107.303131
235.747040 73.404396 107.322456
235.785431 73.411659 107.320900
234.958206 73.118134 107.560585
234.480698 73.391121 105.935257
235.742386 73.488510 106.858414
239.280060 73.236618 105.271011
238.765228 73.407028 106.424034
239.267624 73.651268 107.856293
239.052155 73.157349 107.758545
238.912796 73.281303 105.902702
238.911087 72.971230 107.533867
239.304413 72.396507 106.300797
241.467453 73.138611 107.150467
241.214172 72.639923 105.699791
240.632843 72.627647 106.842308
240.881042 74.008247 106.984886
240.093033 73.935928 105.564461
244.732895 73.444984 107.035629
243.714157 72.824028 105.092117
244.051041 72.787659 105.457291
243.804092 72.428795 105.793587
243.125610 73.306671 106.319633
243.053970 72.961060 107.972809
243.205643 72.633339 107.214256
244.109863 72.854225 105.428932
249.524658 74.267006 107.498192
249.963943 73.549911 107.820015
249.901169 73.558777 107.783325
251.214066 73.094009 107.539703
252.031158 73.335587 106.689430
252.087494 73.399132 106.698936
252.233673 73.604256 107.550293
252.335892 73.528297 107.521683
252.325195 73.536095 107.510757
257.142609 73.132050 105.279839
257.683594 73.036392 105.209229
257.749359 72.925415 105.163902
257.024628 72.795242 105.249474
257.239716 73.043633 105.129227
262.484039 74.101944 106.765869
261.308136 73.751320 107.512878
261.290802 73.925468 107.194534
261.204559 73.780586 107.532021
263.474426 73.142632 105.429382
263.580383 72.945969 107.345863
263.256592 72.992302 106.307343
261.693268 73.342056 107.990860
264.410370 73.341652 106.278603
264.315979 72.282364 105.996490
264.239716 72.125572 105.422234
264.430084 73.477165 107.062653
268.557953 72.811592 106.621208
268.553741 72.783707 106.580704
268.565979 72.803032 106.573990
268.573120 72.824554 106.594818
269.570953 72.463173 105.862022
270.994720 72.279465 107.195946
272.993073 72.047218 106.542656
272.354889 72.295303 107.458977
271.070312 72.328804 106.211800
272.532043 72.514915 106.331207
270.492615 72.721825 106.510643
271.939117 72.997002 107.240501
271.112244 71.868645 106.757599
275.415894 71.861763 107.641113
273.413818 72.262627 107.393013
274.591248 72.018295 106.006256
275.145966 71.979263 106.216774
275.671570 73.096046 106.247025
275.895081 73.018204 105.317352
274.664185 72.947975 105.256203
273.980774 72.716835 106.195152
278.943726 72.614456 106.141197
276.234131 72.559746 107.400696
278.716309 73.184937 105.945915
278.579559 72.988647 106.475784
276.280518 72.640762 107.715408
278.575806 73.008286 106.383995
279.894806 73.977722 106.540771
281.697754 73.734245 106.532898
279.609436 73.979805 106.509384
281.091736 72.846878 107.682762
280.169769 73.157082 105.827187
280.222931 72.745552 107.217682
283.902283 73.509636 107.848885
283.853638 73.493103 107.817680
282.746948 73.545364 106.646049
283.906647 73.516052 107.924149
282.174988 73.555656 106.556931
283.276123 74.136803 107.136902
287.943451 73.194458 105.970589
287.636169 73.537666 107.670113
286.268463 72.417572 106.080513
286.607269 73.309639 106.953651
286.334137 72.370750 106.018967
286.442383 72.573174 105.641663
285.915405 72.428146 105.670204
287.441772 74.397377 107.328926
287.446136 74.379601 107.313179
287.374908 74.184082 107.375946
288.930511 73.132568 105.813011
289.483582 73.322266 105.212296
289.647491 73.578979 105.179237
290.950775 73.716530 107.982826
288.815002 73.717171 107.657677
290.061798 73.590179 106.385674
290.735565 74.039528 107.389725
289.593536 73.973305 105.238586
289.597382 74.206123 105.810173
115.711151 73.241035 108.882576
115.758537 73.126129 109.804008
115.742393 73.014961 108.919144
116.218857 72.895226 109.311279
115.973167 72.875038 109.700775
115.608162 73.426743 109.571251
121.341110 73.543175 109.458908
121.341164 73.645302 109.387283
120.948349 72.293121 108.491867
121.216599 73.455086 109.522377
120.216980 72.932983 108.198799
121.666794 72.905655 109.309784
125.247887 73.107590 108.798080
124.191635 73.332596 108.104385
124.396133 73.863983 108.079933
128.156052 72.107307 108.199974
126.657776 72.216515 108.887283
128.025192 71.461685 108.341537
126.735374 71.929886 108.544388
126.315796 72.160469 108.800720
134.856537 72.587563 108.100990
133.386734 72.174797 108.118576
133.395630 72.176849 108.127785
142.099930 72.280251 108.187065
142.982178 72.212639 108.052658
162.293076 74.301277 108.641037
172.386414 73.312622 108.770523
173.552597 73.398094 108.171196
172.027451 73.059349 108.627823
173.634140 73.245911 108.224182
172.227066 72.906700 108.830345
172.235367 72.208717 108.477440
185.065781 73.609657 108.108772
185.763535 72.173676 108.295784
184.781967 72.711937 108.665253
183.879135 73.047752 108.458588
183.910645 73.311111 108.579872
203.877136 72.109764 110.885071
202.998093 72.435936 109.248131
203.111923 72.549919 109.211922
202.476242 72.410240 110.892525
202.341125 71.901031 110.652519
202.274063 72.201424 110.677582
202.953751 72.500107 109.158257
202.024139 72.020210 110.043114
204.476044 72.611023 111.090401
204.451401 72.546959 109.816917
205.010391 72.145874 110.465134
205.934357 73.216934 110.764442
205.701691 73.143120 110.611137
205.859665 73.295433 110.851082
205.756363 73.342171 110.976509
221.601776 73.032265 108.111008
225.070618 72.312180 109.219269
222.604416 72.615669 108.174797
224.773956 72.522537 109.013298
222.452484 72.630508 108.121399
224.916824 72.097160 109.072166
224.809738 72.564468 109.263992
239.736481 73.414818 108.386116
241.526077 74.449860 108.155861
241.153091 73.872581 108.829887
242.991119 73.057739 108.109291
242.632767 73.816544 108.089859
241.039566 73.907318 108.825768
241.212433 73.887405 108.884041
245.395981 73.378693 108.234055
245.537033 73.510971 108.003258
244.545517 73.353966 108.386635
245.619431 73.360695 108.065659
245.587967 73.372734 108.132523
249.235184 74.140411 108.635269
256.033569 74.214111 108.167290
255.982956 74.208122 108.200050
256.029785 74.145653 108.220062
255.984299 74.165123 108.238701
255.983612 74.148125 108.184746
262.063812 74.159576 108.024139
262.707886 73.499405 108.054199
264.883423 74.357735 108.942551
264.866791 74.348061 108.899986
264.939423 74.380371 108.918274
264.893250 74.361298 108.913445
264.620697 73.907143 108.407867
274.237122 73.143799 108.834518
274.326874 73.080978 108.768707
275.353241 72.596664 109.157654
275.865662 72.179062 108.638489
274.151855 73.305290 108.204041
274.486481 73.334892 108.881737
276.184174 72.965294 108.207176
281.224030 73.495804 108.157852
281.238831 73.440620 108.073029
282.061829 73.648544 108.369003
283.219727 73.834053 108.362648
289.512787 74.263107 108.366028
291.068878 74.231430 108.997772
294.044128 74.808243 103.319778
294.916046 75.063835 102.753891
294.838379 75.112778 102.836784
294.645355 75.064217 102.603706
127.877121 74.556473 105.066612
162.385773 74.596649 107.445992
162.493988 74.597084 107.543243
162.518967 74.612404 107.518433
291.539368 74.678131 107.912766
291.554565 74.764626 108.020103
153.387833 76.242561 110.460999
153.351273 76.301147 110.616020
153.466141 76.475960 110.713997
153.691742 76.058746 110.365944
157.205658 74.570770 108.003075
161.319321 75.215744 108.570221
161.306595 75.206375 108.608871
161.589905 74.616943 108.749977
162.147873 75.479019 108.625191
248.863586 74.717148 108.255478
248.877380 74.705833 108.223335
248.850403 74.712555 108.193115
288.642883 75.149612 109.297775
290.221924 75.571121 108.987083
288.556030 74.727089 109.306801
288.623566 75.160713 109.308464
288.664581 75.124672 109.262749
290.971436 75.161636 109.159515
291.133698 75.368690 108.683289
192.968369 74.650475 112.116158
192.935379 74.613243 112.156624
192.894913 74.639984 112.096916
193.033249 74.675049 112.217850
192.904099 74.592163 112.029625
119.404480 78.384888 99.912102
119.240906 78.780914 100.105255
119.297432 78.082230 99.661064
247.792053 79.037025 110.911499
247.732178 79.186989 110.893593
247.821320 79.233917 110.982155
247.822433 79.510246 110.905518
249.356247 78.239418 109.305748
249.476868 78.193947 109.342155
249.426880 78.040955 109.342659
249.448303 78.127937 109.156990
247.736771 79.369728 111.223000
