ply 
 format ascii 1.0
 comment particle cloud from Fluids_v4
 element vertex 1000
property float x
property float y
property float z
end_header
126.448029 19.282310 52.228138
126.516937 19.344799 53.815647
126.424248 19.404222 53.337025
246.525757 35.058540 104.346779
247.194031 34.747898 104.254333
246.843277 34.879959 105.166832
267.910706 37.585258 95.118698
267.905914 37.594250 95.256836
267.812958 37.679329 95.033028
267.817902 37.699959 95.360260
264.764343 36.687370 98.004372
266.423340 37.747238 97.621475
266.426239 36.803543 98.157700
264.722504 37.203785 98.396553
265.761139 37.434456 98.713715
264.720520 37.294964 97.876930
264.829193 37.637703 98.266159
266.667572 37.199230 97.769638
266.569214 36.986397 97.637344
248.610245 35.290154 104.834587
246.937759 35.274837 103.972351
247.564056 35.430046 104.020935
201.828079 37.868195 107.877609
203.324753 38.199863 107.772156
202.194260 37.303844 107.628258
202.576721 37.046864 107.876442
204.831528 35.661266 107.819641
204.716095 35.520515 107.788689
204.732178 35.560516 107.694855
204.723877 35.551117 107.930283
203.835861 36.220596 107.620247
239.390137 37.849995 105.072113
239.001480 37.738781 106.326675
239.958435 37.325989 106.336868
239.913651 37.014225 106.658699
241.032761 37.912521 107.971436
246.546066 36.132755 105.331429
246.545700 36.130348 105.331161
248.136063 36.073658 105.792999
246.910110 36.916435 105.839317
248.070648 38.139706 106.098175
245.865463 38.157410 106.118210
246.018982 38.014481 106.343597
248.618591 37.902832 106.093651
250.947449 37.138718 106.534721
249.138245 35.456005 105.195473
251.186752 35.546955 105.923073
249.711014 35.408672 105.521461
249.733505 35.430996 105.911743
249.722488 36.497143 105.756683
251.666473 35.870663 106.144859
251.656937 38.155502 107.928757
249.470383 38.095200 107.862907
249.063095 37.652481 106.335037
251.715668 35.972237 106.184723
251.706375 35.940041 106.154190
252.069580 37.874386 107.308105
251.985901 37.509586 107.489655
252.019638 37.494389 107.535973
201.940247 38.039371 108.083122
201.936493 37.713554 108.096977
204.076370 36.530930 108.063477
238.905655 36.529537 108.039772
239.292557 35.921104 108.329041
239.307892 35.913101 108.331779
239.179123 37.116394 108.310196
239.846176 36.469234 108.861160
240.809296 36.952942 108.240067
240.345993 36.127090 108.016739
247.678116 38.046890 108.964867
248.019730 37.655163 108.409088
259.786011 37.959835 114.417412
260.210541 38.057629 114.205513
269.507324 40.282974 92.831886
268.545471 39.303577 92.889069
268.409912 40.168129 92.676285
268.665527 40.182400 92.484428
269.410034 38.320446 95.162643
268.553101 39.375198 95.856140
268.256744 39.524971 93.060646
269.257629 39.462620 95.888794
268.092773 38.476677 94.305939
269.377808 39.900745 94.709427
269.564148 40.132305 93.785072
269.635468 40.215549 93.187706
269.330414 39.384300 95.907433
269.429779 39.018627 95.950798
205.328064 40.744045 104.224854
205.746719 41.266022 104.167206
205.854294 40.896702 104.588394
230.869385 39.688610 102.686028
230.833237 39.694168 102.685425
230.845627 39.685070 102.712067
230.853271 39.657173 102.699402
230.844604 39.669800 102.669518
236.271088 40.270741 104.743507
236.053268 40.230907 104.659164
235.539108 39.631416 104.382011
236.638611 39.328579 103.686523
236.391357 38.878132 103.811646
235.601028 39.501820 104.082329
236.587509 38.485050 104.720924
238.970215 38.429493 104.885605
245.067261 39.617725 104.879356
244.916748 40.060459 104.703224
244.915176 40.059757 104.702003
244.918991 40.060162 104.705566
244.732498 40.447292 104.519043
251.170990 39.506260 104.839561
250.974640 39.031540 104.959038
251.406677 39.442444 104.684547
251.416840 38.458401 104.954498
251.461975 39.484768 105.003448
251.356659 38.462551 104.937019
203.310043 40.441196 106.329681
202.016129 39.753971 107.211624
202.016464 39.755047 107.212326
201.885406 40.699879 107.186287
203.394470 41.092407 106.685539
201.787155 40.614250 106.813683
204.950699 39.842854 107.667389
205.207031 38.961185 107.673615
205.007431 38.662182 107.821823
205.593903 40.929554 105.274757
205.044357 38.712536 107.874100
203.919205 39.543133 107.288773
205.131744 39.269207 107.989655
214.419327 41.115944 105.384811
214.138794 40.902519 105.808037
214.352997 40.856136 105.580856
215.446320 40.793270 105.652168
237.353119 39.393307 105.338264
239.758545 38.398960 105.203171
239.367889 38.847137 105.345566
237.592178 38.660969 105.211288
237.376465 39.353828 105.343170
239.798477 38.386894 106.428680
246.397263 38.180920 107.342957
245.789780 38.691475 105.709923
248.084747 38.633633 106.431854
248.019257 39.223248 107.855766
245.904297 38.223457 106.272186
249.430756 38.713005 106.975578
251.843246 39.688129 107.806274
126.119904 41.472145 110.907845
241.215088 38.612522 108.169746
241.215469 38.610840 108.169312
242.085693 40.307789 109.035149
242.085510 40.307629 109.035149
242.085632 40.307629 109.035088
242.085709 40.307854 109.035469
242.349167 39.703430 108.321754
241.265915 38.898800 108.018494
246.978119 38.545475 108.723969
247.036102 38.505264 108.803497
246.976761 38.544163 108.723198
249.325821 38.498699 108.128342
249.199188 38.768757 108.114273
251.696396 39.008766 108.181618
251.732101 39.851074 108.182892
252.307159 40.665001 108.371941
252.495575 40.569138 108.351631
252.483627 40.747494 108.470116
260.437195 40.463634 110.867294
259.356110 40.469906 110.494728
259.424866 40.478184 110.468254
260.062164 39.553497 110.277122
259.391235 39.784260 110.460098
260.817474 39.564838 110.992638
125.184395 41.370453 111.237183
259.460602 40.496998 112.476974
257.839935 40.717400 112.502922
258.261078 40.335922 112.951668
260.491913 39.478180 113.020737
260.551758 39.144249 111.226509
258.692810 40.020744 113.154007
260.470917 38.179485 113.956444
260.704956 38.821068 113.906380
260.667603 39.228004 112.171570
260.753479 39.011543 113.033539
258.115051 38.610538 114.345078
258.093872 38.664715 114.351074
258.094604 38.714588 114.356102
258.094208 38.663918 114.352173
259.381653 38.755077 114.866417
244.426666 42.800747 97.840065
244.362717 42.489101 97.691383
244.361465 42.489513 97.691223
244.361481 42.487690 97.692032
244.360184 42.488926 97.691963
150.560379 42.538654 101.760124
150.549759 42.594116 101.720985
150.544449 42.591103 101.725838
150.511826 42.625767 101.724007
242.869736 42.896088 101.385727
243.603455 42.460392 100.185616
244.832199 42.546207 99.802727
244.833786 42.544521 99.803535
242.975250 43.195385 101.286827
242.844208 42.822598 101.039368
244.210052 43.389523 100.898872
242.855392 43.031422 101.129112
244.990173 42.516552 101.069870
245.553360 42.674492 100.422951
246.635223 41.260307 101.011642
246.672913 41.304493 101.024132
246.655807 41.268902 100.989212
246.507339 42.080410 101.195694
246.646149 41.263561 100.978729
150.920364 44.117451 103.125908
150.918945 42.608368 102.554726
151.495865 44.080887 103.121048
151.458191 43.893490 102.697281
188.276154 44.045765 104.015648
188.467896 44.124107 103.688354
188.383484 44.115238 103.827019
188.960312 43.266182 104.222519
191.329666 43.334888 104.110550
191.260880 43.208427 104.169067
190.172379 43.729382 103.148659
190.013321 44.133495 103.158363
190.085678 43.735733 103.120850
192.892914 43.076046 104.921059
204.890656 41.750526 104.681206
204.866150 41.489883 104.236794
218.538559 43.302845 104.934937
219.097656 44.256508 104.829323
243.883163 42.116402 103.539825
243.887512 42.111832 103.540634
243.671768 42.378376 103.166862
243.884659 42.111320 103.538292
243.887100 42.113201 103.536743
152.074844 44.384708 105.950676
188.062393 43.736382 105.136917
188.194870 44.332024 106.315788
188.698608 44.051407 105.911438
190.899292 43.994308 105.343040
191.602951 44.008984 106.856285
190.946075 43.975075 105.475067
190.669708 43.845627 106.741768
192.693481 42.419895 105.059494
192.703476 42.423248 105.078720
193.270416 42.849258 106.201332
192.184158 43.623196 106.275932
193.183044 43.489418 107.723618
193.650208 43.131050 107.481094
192.709946 42.434361 105.041016
195.544235 43.800453 106.170959
195.534012 43.747505 106.215240
195.438568 43.175564 106.542786
195.040115 43.241005 106.205688
195.294495 43.568466 106.143867
202.807297 41.329681 106.512901
202.813156 41.327877 106.509811
205.753204 41.707081 107.336838
204.828720 41.594204 105.265221
205.752686 41.706032 107.334129
205.752823 41.707378 107.335571
206.298523 42.703831 107.558853
206.298172 42.703945 107.558990
206.544418 42.702461 106.907822
208.539230 43.741901 106.958321
207.560135 43.021278 106.693611
208.963837 42.714371 106.381866
208.968842 42.724422 106.379784
208.739212 42.556549 106.757263
208.960297 42.719639 106.373520
212.367523 42.656586 107.605705
212.391876 42.609974 107.587326
212.668579 42.436981 107.408669
214.319748 43.187019 107.926163
215.407379 43.553665 107.491035
213.770782 41.432861 106.310318
213.770630 41.435406 106.311028
213.423599 42.143856 107.464638
216.610031 44.189793 107.211815
216.340179 43.645622 107.150688
216.641174 43.965946 107.289818
217.894760 44.057987 105.813133
217.477615 43.122658 105.326042
217.477554 43.122646 105.326019
216.363876 41.442162 105.265503
216.583221 41.627483 105.363449
216.596573 41.649208 105.359756
216.583054 41.627396 105.363533
226.633041 42.015324 105.461197
226.464462 41.811268 107.176979
227.180847 41.964153 105.336433
227.426193 42.151592 105.458878
227.635605 43.511028 107.594856
227.513657 42.009583 105.656548
225.581116 42.149860 106.955750
225.455643 42.407295 107.975403
225.456253 42.371124 107.946754
226.618118 42.182671 105.466438
225.455627 42.407402 107.975441
225.455505 42.406128 107.975708
227.768295 42.910332 106.734848
127.965576 44.149315 108.655891
127.985794 44.120724 108.843651
127.970421 44.140884 108.673668
126.496880 42.625477 110.442688
125.814545 42.772888 110.586220
126.496910 42.625423 110.440987
126.924881 43.056458 109.786537
127.382576 43.757248 108.221230
127.657700 43.358181 109.380798
162.994003 44.093010 111.028824
163.920975 44.337036 110.721954
190.918671 44.320271 108.777283
194.128036 43.927116 108.982048
193.357407 43.294044 108.383629
194.384323 42.895058 108.785072
195.287567 43.975605 108.666534
195.592590 43.442719 108.278717
195.199783 43.533779 109.095924
195.330551 43.678257 108.936058
208.795639 43.748314 108.882874
209.027771 43.656796 108.869637
212.334915 43.957428 110.235062
210.722488 43.008755 109.251839
211.458588 42.477131 108.268845
211.670013 43.241814 109.247917
210.134201 42.790024 109.097389
210.112442 42.797165 109.095848
210.202133 42.865479 108.100174
212.777130 44.038120 110.818932
213.214127 44.002201 108.854729
214.026871 43.868885 108.767090
213.622803 43.520676 109.220413
214.675064 43.512352 108.089310
224.127869 43.959518 110.592079
224.017960 43.627296 110.528557
223.936554 43.504776 110.591309
230.504120 43.418762 109.045525
230.467209 43.437183 109.074219
230.460007 43.410637 109.069519
230.470871 43.415951 109.043953
230.453308 43.439720 109.049248
253.191574 42.820702 108.988823
253.940216 43.313091 109.717728
253.995087 43.370201 108.604073
253.063950 41.774811 109.109161
254.474701 42.818874 108.454659
253.184311 41.997269 109.253639
253.959106 42.343918 108.408348
255.656143 43.199898 110.218719
255.763443 43.176540 110.232338
256.128998 43.057785 109.836960
255.187485 43.624191 110.023895
255.190125 43.645176 109.105515
257.784729 43.464317 110.522980
257.787781 43.471455 110.534073
257.789795 43.466728 110.526314
257.789856 43.469425 110.524750
99.983337 44.028160 113.736336
125.020050 41.952465 111.415466
125.171829 41.547634 111.519081
125.170250 41.548973 111.518639
164.393860 42.628609 112.580124
163.881241 43.849125 111.655960
165.153488 41.922489 112.829048
165.149826 41.953102 112.871353
165.213501 42.983318 111.782921
165.213959 42.982449 111.782791
165.659821 42.375912 112.145813
165.042801 42.280052 113.072632
213.266907 44.290249 111.110306
223.951538 43.738220 111.448601
224.182251 43.556095 111.394669
224.023422 44.001060 111.367607
258.005707 41.212692 111.918449
258.014526 41.212494 111.918846
258.006836 41.210899 111.915207
100.003464 44.534451 114.616096
100.270790 44.185356 114.237129
100.270607 44.185516 114.236977
189.214874 43.034763 135.459656
189.411148 42.756565 135.390442
189.775833 42.741039 135.547211
189.086136 42.575043 137.275711
189.185486 43.404140 137.024689
188.530426 42.475540 136.500259
189.351089 42.192623 135.646042
189.326996 42.916042 137.336411
189.827759 42.911892 137.091217
135.064850 47.104881 101.771271
185.703354 44.861813 101.147827
185.733429 45.619194 101.159531
186.403854 45.150379 101.017029
185.744736 45.635315 101.128555
186.285110 44.909378 101.053558
185.805099 45.198971 100.578125
130.443283 47.435356 103.989685
134.379959 44.905563 102.571304
134.341690 44.949379 102.687302
134.320526 46.939732 102.828957
134.319519 46.938972 102.827560
132.536713 47.045773 104.217911
132.535324 47.046947 104.218292
133.186707 46.985935 103.954529
132.537033 47.047318 104.216942
135.477112 45.787163 103.150047
135.429779 46.365379 102.667320
135.182053 44.629932 102.774246
135.313782 45.161358 102.049606
135.184250 44.629318 102.767387
149.152252 45.957321 104.126076
148.599365 45.815029 104.815872
149.151413 45.956852 104.126228
149.252304 45.704273 104.204300
151.772186 44.639763 103.875656
151.802841 44.666794 103.950989
150.788101 45.298622 104.027802
179.368057 45.969212 104.956741
179.389587 45.987141 104.807495
180.891663 47.063129 103.159935
181.559174 47.078754 102.469719
182.401596 46.941437 104.140388
179.977005 46.302822 103.721985
182.426956 46.717422 102.622978
181.145950 46.239708 102.989159
181.799835 46.727745 104.616631
180.817673 45.470005 104.571663
179.976929 46.302849 103.722176
183.011551 45.800636 104.202408
183.641815 46.066765 104.615189
184.648758 45.242893 104.966194
190.178391 44.512844 104.256050
218.810333 44.339806 104.617363
128.543686 47.066376 105.594223
126.500282 46.267174 107.111717
126.813522 45.750412 107.073227
127.069466 46.374493 107.082947
126.503693 46.276207 107.102692
128.475464 46.048462 106.318153
128.449783 46.078178 106.473824
129.335510 46.734692 106.129990
129.438538 46.737106 105.889809
129.436310 46.720135 105.900528
148.399216 47.233749 105.879158
148.383743 47.319153 105.648735
148.980026 46.136944 107.391212
148.980011 46.136990 107.391060
148.295547 46.714066 105.557304
149.681396 45.488434 107.537666
149.628891 45.499313 107.570343
149.566299 46.776405 105.025139
150.352997 45.661758 106.531792
149.793030 45.606731 107.563286
152.664948 44.512859 105.587975
151.472488 44.798985 105.893654
150.460037 45.655216 105.518135
151.553787 45.408379 105.402611
153.296600 44.687824 107.258293
154.694946 45.023029 106.807457
152.998611 45.354561 107.055252
153.180847 45.571701 106.597878
153.758209 44.560429 106.299034
153.310043 44.520565 107.168549
155.469666 46.150661 107.195244
155.469330 46.150288 107.194298
158.156097 45.060177 106.054443
155.728134 45.147343 106.912056
157.363480 45.055470 105.530678
156.580597 45.479061 105.562950
156.741348 45.360317 105.506142
158.084610 45.042068 106.013954
157.891022 46.152630 107.312889
157.712112 46.167759 107.974976
156.176178 45.838524 105.865921
155.824966 46.333431 107.842926
160.634125 45.702507 107.123528
158.734802 45.706551 105.891678
160.078873 45.490368 105.975891
159.497452 45.774693 107.815224
160.450531 45.946522 106.234978
160.285187 45.870071 106.040810
160.570816 45.947605 106.466621
173.216782 46.840332 105.823151
173.184219 46.904922 105.899223
173.180573 46.941280 105.922081
173.697739 46.875198 105.702888
173.740005 46.749870 105.837219
179.415863 45.712173 105.015495
180.395020 45.866966 106.713951
180.408066 45.894478 106.715843
180.399353 46.055634 106.697678
182.526230 45.394455 105.117073
180.513153 45.410488 106.425720
180.811203 46.527847 106.109825
182.551865 45.926083 105.521080
184.272934 45.084839 105.902275
183.303909 45.391602 105.704262
184.522766 44.995411 105.005287
185.271347 45.075371 106.034508
186.251251 44.972725 105.910149
186.940643 44.908596 106.214638
188.037521 44.399025 106.370346
187.123413 44.839699 106.317451
185.754227 44.972878 106.020363
189.708359 44.453007 106.957436
189.921463 44.675133 107.866081
196.717926 45.593494 105.128593
196.720367 45.600658 105.122231
196.719177 45.576221 105.123253
196.715149 45.590061 105.119858
196.725830 45.581989 105.120811
201.071854 46.805973 106.693054
201.249863 47.046524 106.040619
201.734299 46.710583 106.126762
200.883331 46.845215 106.417175
201.697510 46.431881 106.236839
201.210251 46.230709 106.366302
216.542099 44.473274 107.605347
219.033157 44.451187 105.044304
218.941605 44.510933 105.189110
227.705429 44.304657 107.416351
227.704224 44.304710 107.415688
227.706024 44.304512 107.415329
227.706467 44.303844 107.415726
99.370018 47.456356 110.719269
99.348900 47.234772 110.611717
100.820923 47.322357 108.701210
100.824791 46.374985 110.744423
99.669807 47.008480 109.911827
100.828789 47.273666 108.711800
102.363243 46.071518 109.164658
102.212341 45.908718 109.625618
102.364449 46.071152 109.165993
102.364380 46.071545 109.165611
102.991646 47.314209 110.764084
105.996300 47.285301 108.717903
105.350197 47.405190 110.155518
106.537056 47.301929 110.021088
125.996735 45.003777 108.587181
125.978523 44.845165 108.574280
125.990257 45.038143 108.558556
126.056091 44.703285 108.794617
146.297562 47.145576 110.061584
146.651901 47.119919 109.456467
147.655945 47.109451 110.603935
148.227417 46.094162 109.569000
147.293854 46.238903 109.204056
148.233200 45.754356 109.943878
148.227753 46.094238 109.569069
157.222351 46.962753 109.078743
157.134460 47.140347 110.215439
157.229523 45.909622 108.039864
156.202789 45.750000 110.429329
156.119186 45.715714 110.294449
157.818436 46.497280 110.453293
155.794983 45.948711 109.324127
155.795105 45.948505 109.324493
156.300232 46.719421 110.608299
157.232620 46.419865 110.774971
159.147614 47.268990 110.372437
161.127197 47.023849 110.866867
161.126663 47.024155 110.866905
161.402725 45.895344 108.539680
161.175385 45.845852 109.637711
159.711182 46.773216 109.049240
158.887329 46.288605 108.085350
160.302872 46.653862 108.983185
158.722931 46.309937 109.401894
162.146820 45.207905 108.933174
162.145203 45.212364 108.929535
162.147629 45.209358 108.932846
162.837204 44.961437 109.423592
163.753098 44.626629 110.532265
166.863571 45.791523 109.107758
166.770645 45.631493 108.860207
166.053009 46.101482 109.000496
167.014542 46.283958 108.823441
166.076889 46.160263 108.879929
166.068253 45.760925 108.949234
190.090591 44.855766 108.004837
190.112503 44.832489 108.105995
191.855957 44.390991 108.641411
191.890930 44.419598 108.609940
191.895538 44.419231 108.607315
207.483887 44.844639 108.423393
208.705002 44.521557 108.630821
207.483749 44.843052 108.422874
207.482620 44.843212 108.422981
207.482437 44.844105 108.424362
212.368637 44.352283 110.253708
213.709183 45.489563 110.344864
215.266464 45.229053 109.328163
214.644211 45.274143 110.783737
214.742722 45.412415 110.715538
214.927460 45.407581 110.621155
215.706436 44.949730 108.079399
216.031433 45.893299 109.036110
216.031250 45.893196 109.036110
216.679764 47.018917 109.572945
215.802170 46.912357 110.492439
257.595184 44.876167 110.314720
258.145752 45.065029 109.332001
257.827087 45.939617 109.266464
257.822662 45.936737 109.264465
257.821198 45.935593 109.262787
257.828339 45.937660 109.263718
98.712013 45.354599 113.930450
98.161415 47.131790 113.916916
98.298393 47.447979 112.682709
100.833138 46.414963 113.563492
101.322685 46.279072 113.161385
101.378349 46.176788 113.148422
99.180023 45.086624 112.905174
99.558495 44.808479 112.802048
99.996117 45.557728 112.418892
101.378593 46.176701 113.148468
99.562119 46.832104 111.346695
101.894264 46.524719 111.227409
101.970032 46.979179 111.485703
146.698318 45.635551 111.255127
146.732132 45.527191 111.186096
146.801743 45.626747 111.349915
147.540771 45.351959 111.204758
147.602737 46.460915 111.361015
163.009186 44.622307 111.192932
163.002670 44.614704 111.191467
213.264694 44.911255 111.148026
98.708252 46.388878 114.106476
100.874695 45.506828 114.347595
98.877388 45.902637 114.204849
225.980743 47.224751 119.213219
226.278534 47.320072 118.624901
170.486496 46.493206 122.344086
170.576126 46.721485 121.515984
170.963287 46.591057 121.231430
172.981094 45.274296 122.935898
171.330612 45.266289 121.899895
172.206299 45.699974 122.063736
170.792633 45.337627 122.843460
171.292572 46.936176 121.747444
170.914474 46.839272 121.390533
171.400833 44.800293 123.631783
172.795090 44.551647 123.654144
173.057632 44.906700 123.487411
171.244858 45.585304 123.516777
173.065201 44.806599 123.242836
171.904541 44.788952 123.979759
99.852760 50.493877 101.748055
99.886147 50.492649 101.645218
103.359673 50.043068 99.589767
102.553780 49.937256 100.904991
103.572853 50.055222 100.041100
103.662819 50.109428 99.972733
103.931274 50.406120 99.916862
101.920807 50.609528 101.830856
101.925514 50.608036 101.827774
101.923836 50.608379 101.828629
131.336716 47.674679 101.674538
132.101227 47.921986 101.401772
132.094421 47.918888 101.400352
131.841537 47.953102 101.400902
132.097763 47.916042 101.401138
134.706421 48.255604 101.226456
135.342545 48.346642 100.816643
135.366150 48.366482 100.822258
135.365295 48.357498 100.808403
135.361847 48.355415 100.805542
184.605911 48.535748 101.468864
184.545990 48.494179 101.345154
184.436096 48.828171 101.592628
183.659180 48.684315 101.793770
183.550064 47.799206 101.783623
184.582901 48.585327 101.426224
98.391380 49.811367 104.940956
97.728294 49.936962 103.732063
98.456421 48.988815 103.412094
98.456200 48.990139 103.411102
98.456039 48.988613 103.412148
100.333755 49.607948 103.389977
100.282532 49.668705 103.563438
101.492104 47.725185 104.912102
101.504501 47.721897 104.917992
99.682243 48.911171 103.097839
99.799202 49.533329 102.044655
101.538101 48.703987 104.225319
101.505478 47.718845 104.924782
102.469322 47.938145 104.424225
104.265549 48.307270 104.653885
103.611824 49.069401 104.543564
103.076057 49.131416 104.589577
103.851799 48.993462 104.484947
107.695702 50.454254 104.394814
106.143059 48.763779 104.993217
105.326309 48.395306 105.005424
107.260994 50.122826 104.549217
105.596581 49.058437 104.870811
107.860069 50.534279 104.353554
110.541267 50.281593 104.437965
110.434921 50.467976 104.187569
112.863503 50.280739 104.186409
113.286568 50.522484 104.172691
112.859779 49.722584 104.883835
113.898560 49.595806 104.118423
114.475220 49.752407 104.451904
114.669006 49.765945 104.747276
127.124695 48.208427 104.036682
127.170647 48.170879 104.009567
127.781586 47.743046 103.899284
127.081207 48.080578 104.014076
127.028267 48.193623 104.114311
129.778061 47.546490 103.086884
129.165100 47.623833 104.472603
130.411774 48.009365 103.143425
129.780182 47.544426 103.086906
129.787827 47.546955 103.076454
131.879227 47.556591 103.897194
133.099960 47.604424 102.626671
182.419647 47.564144 102.512001
182.420273 47.564068 102.512321
98.678017 48.848473 107.546051
98.094994 49.584934 107.659897
98.769569 49.146446 106.854370
99.968445 50.314869 105.196381
101.095787 48.859402 106.317474
98.813126 48.807346 107.499359
99.546814 49.473953 105.407967
100.473007 49.616875 105.256943
101.722916 48.917995 106.607300
100.640747 49.865574 106.988884
103.790092 49.074192 106.437508
104.320702 48.727142 107.873215
103.210655 48.199654 107.059807
102.711174 48.060577 107.160316
102.371429 49.364410 105.795509
103.010483 48.004353 106.730644
104.829430 48.321766 105.869972
106.839264 48.875885 105.451324
107.256363 49.735279 105.682518
106.010246 49.502350 106.869125
106.093468 49.396084 107.349724
105.226883 49.465179 107.784111
106.525742 48.961578 106.631699
108.301033 50.293709 105.233612
109.924889 50.401592 105.832512
112.680130 48.349987 107.362083
112.406670 49.050335 106.837418
112.269615 49.365082 107.107559
112.270287 49.365677 107.107155
114.882683 47.958187 107.758911
114.450066 47.882175 107.308174
113.821861 49.664558 106.441437
114.438461 48.387413 106.522476
114.470360 48.559956 106.368584
114.890869 49.560497 105.498428
116.295006 50.004147 107.365784
116.066696 49.726212 106.008224
118.177666 49.088936 107.673172
117.729546 48.957333 106.730865
118.745735 49.697884 107.303024
119.034157 49.690502 106.816940
119.035500 49.689579 106.815300
119.471344 49.146816 106.930206
117.151634 49.930740 105.804169
120.539177 49.037025 106.275970
121.409920 48.660877 106.244217
121.406708 48.665260 106.233887
121.407310 48.664436 106.239861
121.411140 48.663628 106.243080
123.486893 47.951408 105.726067
124.337418 48.114582 107.225037
123.281738 48.302612 105.636429
124.713150 48.860847 107.057121
125.376518 48.808411 106.030525
123.943001 48.462845 107.159554
123.944191 48.325005 105.394249
124.098709 48.626728 107.177292
124.326492 48.009811 105.334312
126.085541 47.859295 105.990150
126.048363 47.847538 106.229858
126.035408 47.745625 105.814072
146.684311 49.172344 106.603279
145.102707 48.873058 106.803757
145.349594 48.170444 107.739281
144.737656 48.329292 107.792992
144.798447 49.479488 107.373894
145.176392 49.521988 107.005051
145.324844 49.510036 106.918198
147.558029 48.917225 106.176735
147.785049 48.546638 106.456314
147.558716 48.918613 106.178604
147.558975 48.919514 106.180099
168.078873 48.352608 106.153091
168.630142 48.518627 106.351265
167.919754 48.848217 106.452370
168.003448 48.859882 106.419601
167.955902 47.870785 106.422951
175.666443 48.597645 107.184074
175.666565 48.597500 107.184013
175.239273 48.019794 107.891075
175.694122 48.551537 107.185844
174.273911 47.504940 106.793060
175.666397 48.597775 107.184189
95.184608 50.430145 109.698280
95.438332 50.565601 109.015739
98.425339 49.484081 108.434662
100.022202 50.021366 108.055016
99.200989 49.685913 108.688416
100.262329 48.420994 109.369392
100.282494 48.367428 108.763870
101.171303 48.188633 110.593582
101.697662 47.880375 108.151871
102.396011 48.052654 110.661713
102.581154 47.849052 108.792038
104.636971 47.924690 109.589218
102.065605 48.221561 110.381050
103.274666 47.579708 110.114319
105.301315 47.871330 110.266594
104.880836 48.987762 108.403519
105.500473 47.811916 110.330345
106.823227 48.101696 109.896767
107.277458 47.624340 108.653313
104.890076 49.009434 108.383522
107.116798 48.426552 108.330391
107.260681 47.630299 108.617477
107.312187 48.160328 108.624802
112.895813 49.221729 108.222382
114.074051 48.655487 108.723007
113.989349 48.041672 108.330582
113.702927 49.533306 108.345436
115.309662 49.564518 108.362595
115.024788 49.400379 108.564568
116.621384 49.034061 108.200409
116.711365 49.034496 108.162033
116.709328 49.034466 108.161835
144.719894 48.154873 109.080368
144.841568 48.262558 109.605545
146.026749 49.093742 109.328842
146.427017 47.488724 109.429901
145.236389 49.527100 109.055946
145.514343 49.065388 109.891586
145.514725 49.065414 109.891304
159.414062 47.488728 110.503143
160.012314 47.733810 110.889328
161.190140 47.430614 110.496040
169.044846 47.971554 108.154488
168.101898 47.963764 108.080284
168.101196 47.964703 108.079979
168.102066 47.964710 108.080276
170.596283 48.856098 108.433098
170.187103 48.670555 108.101540
170.586700 48.807861 108.157562
170.511673 48.815002 108.208458
172.658966 48.688747 109.421875
171.719360 48.403843 108.212845
173.029953 47.874317 109.260674
172.040817 48.981934 109.072067
172.962494 48.924473 109.124786
173.414322 47.803314 109.022995
173.575592 47.813519 108.492104
174.214615 48.365395 108.362328
216.375320 47.390514 110.006737
216.375107 47.390690 110.006508
216.375122 47.390736 110.006454
98.100677 47.596390 113.101555
98.100357 47.595284 113.099731
98.102226 47.596764 113.101784
99.925705 47.593094 111.241089
160.727448 47.601772 111.088676
225.768921 47.436989 119.285400
225.962952 47.648720 118.499641
227.366287 49.272640 118.871353
227.032410 48.496601 118.954086
226.786102 48.680038 119.081558
225.925156 47.698689 119.543945
228.587097 50.009586 118.982056
227.991745 50.295738 118.466888
228.490494 50.267139 119.088913
103.743217 52.095375 98.538742
103.690170 52.114971 98.546951
103.744011 52.095345 98.538940
104.025314 51.538204 98.500282
101.781990 51.178177 100.253387
101.782227 51.178104 100.252457
100.014709 50.661777 101.494644
100.677315 50.896221 100.755127
102.501686 51.516029 99.329796
103.744858 52.046665 99.518089
147.245483 51.201111 99.563301
147.324814 51.138206 99.582878
147.317596 51.153511 99.556595
147.339844 51.168407 99.570549
147.317078 51.162891 99.594826
97.878532 51.300919 104.098152
97.893074 51.304386 104.107162
97.893547 51.301682 104.104515
97.896530 51.312252 104.103897
108.447868 50.976768 104.411804
110.429642 50.773952 104.085945
110.467598 51.434433 104.630814
109.257301 51.315132 104.723846
111.427505 50.861233 104.701744
113.038727 50.588634 104.534798
118.121696 52.122334 104.523430
118.037323 52.142090 104.494080
118.137245 51.500938 104.497231
118.037369 52.142193 104.494080
118.209900 52.064388 104.559395
97.288177 51.609528 106.930611
96.613831 51.300598 108.003342
97.295242 51.621887 106.943970
97.301285 51.637127 106.951935
97.293800 51.622597 106.940460
98.682129 51.064945 105.634827
99.958473 51.132324 106.456429
99.110176 51.282539 107.694679
99.825539 51.209381 106.676003
100.015900 51.036625 107.077866
110.588966 51.316082 106.964088
110.593330 51.320507 106.965706
110.427711 51.596859 106.556740
110.591522 51.321484 106.964211
111.060219 50.593079 106.883904
117.039207 51.046658 105.677391
116.760475 50.678082 105.874870
116.801132 50.728939 105.810448
95.009697 50.677517 109.896675
95.625076 51.868538 109.723061
94.902412 50.743671 109.295204
95.776123 51.072659 110.189423
97.997993 52.040798 108.987946
97.866737 51.774586 109.522697
95.837555 51.864971 109.265610
97.881447 50.797195 109.239494
97.887634 51.712994 109.525543
97.861359 51.777157 109.526558
94.783745 52.752800 112.587280
94.023491 53.274281 112.505150
95.150726 53.317249 111.388733
95.151756 53.314953 111.387535
94.351265 53.593460 112.979538
95.152557 53.312431 111.388084
97.633553 53.133835 112.737892
97.141701 53.420403 112.106049
97.378754 53.379414 113.158134
97.425270 53.498180 113.130714
96.985764 53.536930 112.070374
97.463333 53.377621 113.134224
228.269516 50.400940 119.151627
228.295761 50.385551 118.576424
258.264252 54.780663 98.957878
258.423401 54.657581 99.773880
258.215302 54.742138 99.841156
257.741882 54.578953 99.187164
258.581085 54.473660 99.337364
257.717255 54.683788 99.233826
150.740311 53.948044 104.470825
150.518448 53.575977 104.107719
150.237106 53.654461 104.110870
150.419266 54.406422 103.807503
150.840179 54.335285 104.183403
150.213852 54.326279 103.851044
94.877945 53.916782 112.878723
94.329903 53.782516 112.869949
90.866508 56.563217 114.732208
91.797592 56.602898 114.164879
91.696930 56.527828 114.112396
91.715912 56.558590 114.100334
143.766586 57.298702 135.132416
143.957535 57.182301 135.058945
143.808777 57.359470 135.304352
91.071587 57.582184 114.601418
91.142555 57.483536 114.895233
90.882790 57.375835 114.837936
143.552017 57.329765 135.471436
137.650864 62.274696 94.455894
137.672012 62.239292 94.460350
137.659439 62.233067 94.441750
137.670349 62.206848 94.440102
137.648453 62.249256 94.443665
163.581116 62.630856 95.062263
160.797531 61.791824 131.564224
160.804977 61.759491 131.595551
160.823853 61.772812 131.600876
160.831711 61.770668 131.576385
160.828674 61.736561 131.564270
164.184906 63.352135 95.116310
162.870865 63.033810 95.085190
162.965286 63.382992 95.449738
163.081039 63.028248 94.642792
163.807541 63.866570 95.222900
164.078644 63.651295 95.058464
236.320892 68.454140 89.849342
236.191879 68.292625 89.874008
236.377975 68.208191 89.569817
236.147186 68.233063 89.564934
117.934021 72.326103 96.345062
117.906662 72.361732 96.341270
117.933258 72.352501 96.356567
117.931717 72.353317 96.320641
117.904816 72.328735 96.332512
186.662643 93.720253 101.354607
186.983551 94.270592 101.590393
186.514114 94.818825 101.548714
