ply 
 format ascii 1.0
 comment particle cloud from Fluids_v4
 element vertex 1000
property float x
property float y
property float z
end_header
55.734177 14.331261 113.794304
56.031277 14.338975 113.411789
57.126030 14.244821 113.145714
69.916336 15.362080 112.601265
71.246094 15.263484 111.326866
70.024887 15.384819 112.797806
69.870758 15.395297 112.687294
71.599220 15.219995 111.241135
71.598778 14.947976 112.417053
71.487747 15.248787 111.820190
49.984165 14.003890 114.377319
49.966244 13.916390 114.439400
49.933575 13.950081 114.494659
50.096550 14.287497 114.699173
50.910576 14.453011 114.800652
50.757431 14.274853 115.288048
55.673195 14.284229 114.309387
55.858418 14.304995 114.906464
58.327347 14.247560 114.593506
57.878944 14.158730 114.405449
58.052917 14.301455 115.040733
57.049366 14.192207 115.356537
48.567844 13.724006 121.867859
48.100471 13.719310 120.793571
48.065071 13.668077 120.841454
48.247669 13.165334 120.979637
48.109257 13.703243 120.811539
49.761211 13.752794 120.620888
50.227009 13.831636 121.148415
50.222488 13.750950 121.637665
50.146679 13.819858 121.747879
49.992302 13.755974 121.898163
93.564613 18.216953 104.576981
94.141617 18.110310 104.301315
91.932022 17.531027 107.753632
92.134033 17.564533 107.217384
92.127434 17.592916 107.210518
91.848190 17.525732 107.889565
90.250549 17.378647 107.535973
90.115784 17.364422 107.823242
90.901649 17.452339 106.790108
90.863480 17.438848 106.791351
94.297539 18.022614 105.774132
94.371292 18.070368 105.814453
101.441536 18.181763 107.793495
71.836426 17.170298 108.910164
71.557510 16.773333 109.421738
71.835869 17.155788 108.910614
73.258797 16.642199 109.708984
72.905586 17.154844 109.978951
72.300003 16.284704 110.856628
73.024254 16.493761 110.695465
71.944893 15.618112 110.015648
72.450668 15.444144 110.207840
72.951485 15.554802 110.087952
89.203148 17.272673 109.510796
89.167786 17.269560 109.487045
89.207123 17.274820 109.484291
89.183998 17.271252 108.769981
89.157234 17.268108 109.458168
100.650841 17.707029 110.971008
100.293449 17.252621 110.658295
100.871216 17.607697 110.168350
100.686577 17.585789 110.077049
100.726509 17.636312 110.352608
102.281738 17.829975 109.475647
103.204811 17.690159 108.263489
103.639389 17.491636 109.332642
101.996559 17.442125 109.941643
49.685154 16.583319 112.352242
49.801178 16.251348 112.888565
50.320599 15.747965 112.354210
50.515747 17.008255 112.369072
50.113770 16.896210 112.106956
50.915806 16.247389 112.763451
50.837418 16.001661 112.683716
57.733143 14.958085 113.806396
57.968723 14.605961 113.701012
57.301636 14.982837 113.797783
58.250385 14.591114 113.598190
57.551102 14.518150 113.965645
69.892654 15.631562 112.350212
70.549805 15.438203 111.021690
52.421310 14.963877 116.030510
52.825302 15.019033 116.286476
52.387589 14.999696 115.968140
52.421219 14.974687 116.017891
53.524555 15.276246 116.348862
54.356800 15.151029 116.567192
55.305813 15.135591 116.838753
55.224880 15.071517 116.772850
55.152935 15.219145 116.878143
56.231983 15.289982 117.651306
57.235664 15.419710 117.589890
57.242367 15.395386 117.587433
57.201260 15.455387 117.633125
57.228256 15.451165 117.536858
82.919655 19.184546 103.719841
82.742905 19.757086 103.411064
82.720985 19.687305 103.411026
82.741989 19.715105 103.432373
82.718567 19.738577 103.424660
84.276047 17.970913 102.960533
84.320541 17.718002 103.184799
84.323135 17.713179 103.187363
84.319199 17.713146 103.187889
84.318550 17.719389 103.191780
94.148842 18.425535 104.974144
94.310699 18.188873 104.073051
70.651482 18.227942 107.547218
70.141434 19.563295 106.963928
71.399406 19.491817 106.638062
71.420326 19.618233 106.826271
70.133011 19.096245 107.458191
70.157875 19.599144 106.968552
71.575500 18.371248 107.870667
71.546921 19.304688 106.706566
95.003471 18.401806 105.047653
103.157547 18.732178 107.721542
102.005280 18.462124 107.536819
102.384262 18.545471 107.246567
105.603264 19.591227 107.520569
104.825523 19.149263 107.837769
105.073410 19.159288 107.589409
105.532066 19.048424 107.503052
120.720436 20.393223 107.352364
120.672653 20.471178 107.337433
120.712029 20.430723 107.374237
120.687881 20.433475 107.339478
120.733597 20.477808 107.354073
127.931198 20.989666 106.082848
127.808868 20.914656 106.096977
127.985489 20.987831 106.092628
50.426136 20.109276 108.885818
50.060593 19.433577 110.225395
50.060280 19.432085 110.224525
50.059490 19.433672 110.226997
50.876919 19.435987 110.023048
71.252991 18.050814 108.043137
101.085701 18.433594 108.479576
101.600761 18.488935 108.494080
103.717842 17.868567 108.637032
104.150337 18.139244 108.780914
106.328552 19.887651 108.175652
106.880585 19.720772 108.577499
107.004066 19.676332 108.574135
106.076805 18.797886 109.937813
106.117447 18.879913 109.804214
107.048065 19.162788 110.876297
104.533257 18.011200 110.517715
104.570526 18.044846 109.572365
105.602333 18.300970 110.431381
104.608604 18.922756 108.580276
108.278336 19.776804 108.772690
108.961395 19.420692 109.407379
108.667831 19.546829 108.896736
108.894730 19.304274 109.741486
108.213310 19.177872 110.647964
108.927879 19.353148 109.659416
115.496887 20.517944 110.930458
114.879517 20.650370 110.742363
120.076843 19.651838 110.420090
120.183319 19.668505 110.841492
120.486847 20.031187 110.144493
120.968391 20.078190 110.879974
122.143349 19.528095 109.422516
120.284172 19.665684 110.996780
121.626968 19.452820 110.162071
121.937950 19.601326 109.056007
122.163712 19.797117 110.390816
122.940109 20.150217 109.241798
122.905464 20.231510 109.469154
122.959839 20.183241 109.459526
56.179394 20.229786 111.505531
55.682484 19.308537 112.206757
55.915901 18.616535 112.201569
55.915512 18.608879 112.216019
55.908276 18.609116 112.221016
55.906338 18.609575 112.208450
98.629456 19.815557 111.432655
98.628593 19.816761 111.430855
98.624092 19.815386 111.430161
98.625107 19.820904 111.432518
99.627754 18.057701 111.415535
99.601738 18.160076 111.407104
99.704735 18.072845 111.398369
100.037315 18.248072 114.002884
99.558884 18.042786 111.465332
104.125069 18.000948 111.530022
104.170677 17.897818 111.972565
104.252701 18.127050 112.877899
103.970306 17.900530 111.998055
104.884972 17.807795 113.406982
105.541901 17.889536 112.361572
104.932961 17.919323 113.253479
105.645569 18.139204 113.338051
105.702354 18.477428 111.197769
106.642960 18.147141 113.002739
107.528191 18.588467 111.804375
107.594345 18.445080 111.735786
107.500435 18.588392 111.712646
109.515221 18.872341 111.618622
109.931488 18.280771 111.898956
109.944405 18.799807 111.587029
108.275322 18.315409 113.836807
108.364487 18.385771 113.845985
109.620377 18.636021 112.094971
110.086365 18.559425 112.323669
108.594025 18.300900 112.620422
110.592499 20.468973 113.661644
111.318558 20.710167 113.853096
110.698769 20.443050 113.586632
115.567184 20.548433 111.030273
114.809608 20.663954 111.506798
114.619614 20.651297 111.188416
115.230209 20.511520 111.603188
99.655983 17.871677 114.747299
100.070206 18.002758 114.845917
100.197571 17.987047 114.736565
99.560020 18.251348 114.097649
99.694939 18.540367 114.282639
107.102165 18.010742 114.417168
106.964607 18.420647 114.172409
107.698547 18.382332 114.533524
108.120926 18.365709 114.410957
110.586174 20.594645 114.152443
110.675591 21.105328 114.407974
114.172462 19.982422 130.535645
114.456848 19.492163 130.243668
114.555305 20.151871 130.841904
113.847313 19.820871 131.298843
115.277367 19.152859 130.835449
115.740807 19.200020 131.191589
113.979294 19.189772 130.541687
114.143478 19.052269 132.096115
115.428452 18.954264 132.971130
114.454575 19.161642 132.540955
114.921288 19.022543 133.018936
116.299240 19.095253 132.689682
116.069809 19.191582 133.174698
116.461548 19.311728 132.367020
116.550537 18.903263 132.377365
126.481720 19.251162 171.929047
126.372559 18.185356 171.683670
126.840622 18.263245 172.423935
126.340446 18.925817 171.735886
102.385971 21.943745 101.920128
102.433685 22.019600 101.154854
101.695511 21.920555 101.520393
102.621658 21.914824 101.454437
101.925400 22.018309 101.910080
101.866684 21.957380 101.164749
127.993355 21.693590 101.782852
130.234390 22.278343 100.030457
128.481079 21.763926 101.644569
130.946808 22.302883 100.820915
130.862473 22.298742 100.496613
129.529419 21.892857 101.745766
129.863739 22.031506 100.102455
130.043991 22.428242 101.360260
130.479767 22.094427 100.021431
55.268642 23.314907 102.857132
55.146801 23.410105 102.775322
55.278233 23.307825 102.856659
53.758072 22.636272 104.950470
53.677258 22.647438 104.951111
53.756203 22.636814 104.950531
75.340271 21.809559 104.197876
75.349060 21.761993 104.200554
75.347183 21.792345 104.201889
75.324699 21.807205 104.180321
74.519646 21.214233 104.411140
81.742485 21.894630 103.778152
81.738266 21.877436 103.784462
81.743950 21.894110 103.785011
81.748711 21.884499 103.782524
81.746727 21.895245 103.791809
104.231308 21.846506 104.850639
104.208694 21.829077 104.864944
104.245262 21.825972 104.869217
104.202324 21.823282 104.836258
104.227173 21.800734 104.855476
127.406708 21.706282 102.503960
127.795769 21.745386 102.150055
126.852074 21.422853 102.938072
126.777908 21.350744 104.892082
126.829163 21.396929 104.264755
128.379944 21.530304 104.131470
126.675697 21.380306 104.284264
126.720932 21.381086 103.526817
129.882767 21.943392 103.798325
131.150925 22.117411 103.965179
129.664734 21.860790 102.444878
129.462906 21.685396 104.214523
130.563202 21.759171 103.847404
132.413025 22.566391 104.523544
132.193558 22.556812 104.833450
150.399155 23.738108 102.119949
150.407059 23.783190 102.131783
150.413422 23.747309 102.117302
150.396362 23.708332 102.112930
150.395416 23.716000 102.135345
53.000587 22.656034 105.654907
51.342007 21.308651 107.802139
51.442280 21.436661 107.506264
51.899075 21.713785 106.998085
51.890072 21.705120 106.995522
51.900307 21.711859 107.001266
53.077606 22.299227 106.033020
56.078632 23.307981 106.181252
55.841743 23.207930 107.662849
53.968853 23.174721 105.486275
56.079193 23.308891 106.179405
55.964531 22.836987 106.775810
67.107124 22.256573 107.407799
67.958870 20.926134 107.428482
67.972420 20.919834 107.435074
67.167183 22.864298 107.553658
67.383888 22.191692 107.786072
67.983620 20.948977 107.417633
67.972900 20.951372 107.439072
74.414284 22.960590 106.327614
74.416107 22.960495 106.325623
74.413673 22.960762 106.326599
74.413795 22.960524 106.329712
73.909454 21.436441 105.138237
73.794350 21.682108 105.779549
73.784561 21.750648 105.877289
127.901215 21.378990 106.129753
128.916077 21.609871 105.466553
130.564911 22.237173 105.005745
130.966278 22.306202 105.496979
130.021988 21.737610 105.287720
131.637955 22.479200 105.783104
133.792969 23.000418 106.021164
133.152557 22.765162 105.789452
132.549530 22.892994 105.954453
134.058441 23.534458 105.993195
134.924133 24.036352 106.043144
134.640747 23.833130 106.961494
134.533020 23.640898 106.835182
154.850586 23.849169 106.424942
152.709259 23.586912 106.022705
153.919861 23.744081 105.330704
152.747070 23.594595 106.017433
152.694443 23.603037 105.639488
152.695770 23.584156 106.006310
153.452362 23.691416 105.214630
155.426849 23.908859 106.021606
50.274460 20.466436 109.981583
51.135796 20.514330 108.942673
51.129704 20.526209 108.931252
56.369373 22.964687 110.614349
56.574848 23.115515 110.366730
56.580082 23.120077 110.363167
57.659954 23.219843 110.962990
97.551994 22.166050 108.815048
97.543060 22.154417 108.786224
97.549049 22.162851 108.814209
97.043457 21.464567 110.636452
97.551186 22.165834 108.811684
97.548920 22.166809 108.815186
115.393806 22.921122 110.854576
115.054840 22.705538 108.459343
115.202484 22.684200 110.353409
115.107010 22.818501 110.386292
115.082756 22.784716 110.304100
122.396164 20.339676 109.297714
128.729324 21.222851 109.514587
129.158554 21.267668 109.456459
128.756348 21.220512 109.531830
128.755936 21.206417 109.523300
128.745178 21.267979 109.520752
131.041504 21.454533 108.827194
131.455688 21.474443 108.710060
131.447693 21.502792 108.796692
131.465683 21.512527 108.698868
131.498703 21.472673 108.766449
154.635132 23.823877 109.379135
154.631317 23.824575 109.454834
154.861786 23.847874 109.366058
154.962387 23.865807 108.970169
155.308456 23.890049 110.080238
56.178337 21.103180 111.205109
56.183514 21.096031 111.208199
56.181221 21.096628 111.209221
57.146214 22.166941 112.986252
57.285919 22.287292 113.193336
56.822437 22.408981 112.785675
57.867432 22.807915 111.468796
57.294079 21.511269 111.120499
57.286339 22.289110 113.190346
96.744759 21.553553 111.537552
96.734138 21.544283 111.518814
97.806885 21.319983 111.850441
96.796814 21.641373 111.378365
97.016830 20.873243 111.933258
58.335705 23.001225 114.093987
111.312904 21.264456 114.877411
112.108788 22.079346 116.684166
112.140221 22.008892 116.640648
112.051613 22.043470 116.663956
112.960602 21.803778 115.396576
112.380287 21.587736 116.156670
112.890862 21.751955 115.362015
112.753960 21.749962 115.169472
152.629181 23.581083 114.372704
152.621658 23.635431 114.368690
152.615036 23.649818 114.368240
152.623337 23.606062 114.380112
152.611893 23.596025 114.358719
109.851082 22.889570 156.263733
109.863457 22.763559 156.231522
108.956253 22.509974 157.202316
110.160995 22.791298 156.368286
109.490463 22.674828 156.268387
109.442657 22.517988 158.114212
109.995155 22.546803 158.164276
109.931496 22.518873 158.139618
110.080536 22.306366 158.062271
55.974251 23.702385 101.274071
56.438637 24.463192 101.474281
56.136280 23.610188 101.305244
56.451035 24.035812 101.308617
56.778435 24.239349 101.718674
57.965084 26.477663 101.699654
137.042145 26.110491 101.563034
136.494049 25.732019 101.881470
136.863785 25.332350 101.497704
136.813492 25.601393 101.306274
137.457031 25.467123 101.569069
55.275154 24.073175 103.701416
55.663269 24.549213 103.760635
56.190216 25.338493 103.336845
56.097660 24.933060 103.725380
57.766560 25.973623 104.779686
56.879742 25.375406 103.240738
58.928909 26.290651 104.117882
57.035358 26.308491 103.549919
76.908501 25.106712 104.431793
78.301262 25.484800 103.840263
78.149803 25.184082 103.683952
77.608154 25.442768 103.738167
78.300621 25.484066 103.839928
78.300926 25.483603 103.839668
136.126190 24.791733 104.221931
136.127914 24.850201 104.236519
136.218704 24.942554 104.177521
137.178528 26.172251 102.629852
137.430511 25.012589 103.226753
139.417084 25.602566 103.750839
138.763062 25.577545 103.508835
139.067780 25.284973 104.261932
138.003510 25.604057 103.883598
140.553925 25.508043 104.423851
140.560486 25.471621 104.335121
143.333862 25.262632 104.486534
140.942978 25.558359 104.615913
144.327011 25.433134 104.019592
143.976303 25.450626 103.611732
143.469040 25.608360 103.995682
144.299210 25.595436 104.142685
144.180817 25.472485 103.831932
55.246304 23.589008 106.366814
55.640610 23.505241 107.725594
56.537239 24.040001 106.706749
56.967175 25.746698 107.302849
59.023933 25.608755 107.876511
56.946697 26.446352 105.793427
58.640583 26.045244 107.199066
58.643536 26.051575 107.203102
56.946632 26.448389 105.793503
66.500557 23.992279 107.809265
66.507874 23.997702 107.791336
66.502663 23.975840 107.779907
66.530655 23.988840 107.785980
75.932983 24.687553 105.444359
76.175911 25.005451 105.804611
76.017090 25.329147 105.623619
75.836052 25.146345 105.727791
75.866714 25.145012 105.756668
136.170166 24.707884 105.021309
136.416946 24.792021 107.741463
135.885178 24.265247 106.387276
136.598175 24.317669 106.977913
137.681366 24.782955 106.899300
139.475418 25.429352 106.703690
138.623489 24.987932 106.245468
137.704086 25.086294 105.354675
138.627060 25.000706 106.037132
138.996552 25.353661 107.446281
140.312897 25.669567 105.890594
141.238419 25.709721 107.611984
141.915771 25.329208 105.628876
141.377930 25.475552 106.319756
141.938553 25.356779 105.698196
143.046280 25.753344 107.285118
143.176956 25.811398 107.434456
143.134735 25.722731 107.439224
155.751709 23.941605 106.527596
155.800446 23.946650 106.594429
155.731125 23.968191 106.423035
171.964630 25.620337 107.473145
172.142319 25.612963 107.590530
171.497330 25.622036 108.014763
171.927383 25.548670 107.564537
187.781937 26.916676 107.844566
187.885468 26.924564 107.745392
188.315979 27.065840 107.640701
57.910858 25.813694 109.134933
56.591091 24.774183 108.280830
56.593716 24.393435 108.769073
56.596806 24.394663 108.759758
58.705750 25.103956 109.983673
59.012951 25.134768 109.625450
58.420712 25.143673 110.548706
57.045769 25.299629 108.500923
59.367817 25.473938 109.740585
61.852650 26.305172 110.088722
60.535122 26.189850 109.139114
61.661282 26.190313 110.039017
59.729134 25.923437 108.725227
64.776123 26.163837 109.431725
63.427948 25.489651 109.245155
65.021538 25.873516 109.362450
63.441273 25.866402 109.995422
64.423340 24.936710 109.312080
63.397427 25.762842 109.982582
64.684509 25.247841 108.714790
65.070175 25.698828 109.043320
115.264893 23.255068 108.175964
115.265205 23.255369 108.176208
115.265213 23.254845 108.175896
115.265320 23.255194 108.175827
116.654694 24.161606 110.844078
116.686508 23.579891 110.030617
116.931808 23.736677 110.953186
116.928177 23.857807 110.895889
116.603439 24.114138 111.001862
136.984253 24.551353 108.392090
137.065674 24.674627 108.788513
137.197189 24.803885 108.905022
138.803116 25.142275 109.287003
139.233505 25.110826 109.081810
138.953247 25.129124 109.260231
138.148727 25.147463 109.321648
140.486282 25.677595 108.825783
143.288284 25.798189 108.480850
142.802963 26.282351 108.956200
142.807068 26.285723 108.917755
141.653519 25.828880 109.026878
141.715179 25.919258 109.049553
140.524979 25.613703 108.349419
157.595200 24.061922 108.239204
158.100723 24.172457 109.396507
156.583466 24.000172 109.748024
156.496094 23.992041 109.944176
156.508667 24.007771 108.048668
157.575714 24.032957 109.741501
158.210190 24.191055 108.395859
158.447388 24.652781 108.770393
160.099548 25.954592 110.747139
160.452591 26.290367 110.879105
158.430481 24.705618 109.003738
159.932343 26.220732 109.610237
160.878540 26.809902 110.179329
168.571442 25.431780 110.239113
168.570374 25.309093 110.162254
168.636917 25.454298 110.334946
168.683105 25.427773 110.328377
168.584137 25.389944 110.189423
171.580780 26.777246 108.412567
172.033524 26.700888 108.111214
171.803162 26.668665 108.585724
178.535187 26.805367 109.790596
178.466537 27.547953 109.774216
178.485870 27.462721 109.788521
185.954453 26.996742 109.812302
186.927979 27.001749 108.635429
187.637009 27.078753 108.531555
185.500504 26.934122 109.563477
185.898331 26.866785 109.717934
185.504181 26.955088 109.419525
185.506958 26.953629 109.497307
58.458534 25.358265 112.176895
57.508305 23.490747 111.380920
58.697197 23.998224 113.929626
58.693256 23.990063 113.936890
59.022026 25.521048 112.221008
59.031361 25.506681 112.238106
58.939011 25.634821 112.015213
59.131268 24.739994 112.383575
156.439301 23.992886 113.309608
156.328293 23.994846 114.141113
156.303711 23.996176 113.505150
156.231598 23.990776 113.353058
160.083221 25.488066 111.298660
160.243042 24.657673 113.645782
159.987167 25.437653 111.413300
159.702438 24.360964 113.820847
160.089249 25.451586 111.348900
159.672012 24.624889 113.365295
161.598022 26.886681 113.647842
58.316505 23.549234 114.224861
58.548222 23.818272 114.092110
157.504517 24.106264 114.134621
157.518539 24.107550 114.157791
157.484955 24.123644 114.212936
160.320663 24.833981 114.185616
160.066406 25.048979 114.287872
160.346283 25.039696 114.438118
159.798965 24.330923 119.755989
158.764465 24.136665 119.950142
158.404221 24.139938 120.639397
158.451599 24.103508 120.730698
158.500839 24.110970 120.916840
160.303543 24.602770 120.413757
160.275162 24.607924 120.288422
159.523071 24.479156 121.332596
160.287186 24.526501 120.739288
210.748535 29.418371 87.923203
210.899765 29.434734 87.637947
210.724869 29.419748 88.439323
210.890823 29.434160 87.754723
211.665405 29.506853 87.486290
211.838562 29.529137 89.916527
211.730316 29.525820 89.904312
211.898590 29.549664 89.902908
212.833054 29.640890 89.150139
212.779465 29.628195 88.435295
212.608475 29.626751 88.022301
212.789795 29.620842 89.434273
209.208450 29.265282 92.028519
209.170654 29.255396 91.382881
209.280701 29.268641 91.301430
210.205429 29.364769 91.515633
210.091156 29.350889 92.085594
209.890182 29.334995 91.062347
208.357910 29.189089 94.925941
208.162827 29.169453 94.320015
208.168365 29.169930 94.278969
208.159180 29.169132 94.354195
210.134460 29.365896 94.467461
210.071274 29.360229 94.655510
209.443146 29.297613 95.202438
209.502106 29.301046 93.373322
210.130905 29.365797 94.469826
64.886230 27.751856 98.678680
65.322502 27.668240 98.342896
65.248039 27.643389 98.672180
65.326416 27.653837 98.319855
67.701332 28.159269 96.839340
67.395294 27.972342 97.864326
65.931999 27.985233 98.508224
67.342384 28.425554 96.801331
67.296654 27.988884 96.726494
67.484726 28.320230 96.753342
67.394211 27.973280 97.863541
190.646652 27.420834 98.922073
192.749237 27.630796 98.722748
192.171982 27.579828 98.767868
192.998596 27.656097 98.743248
193.017944 27.663473 98.721558
194.807999 27.840519 98.887054
194.780273 27.836744 98.867844
197.173996 28.083759 97.614059
197.192810 28.078810 97.581528
197.145020 28.075983 97.581619
197.223236 28.088272 97.600296
197.123032 28.070295 97.625801
202.029282 28.519588 97.429153
202.588333 28.411837 97.194466
202.042938 28.391216 97.450714
202.816772 28.817961 97.574722
202.716293 28.606840 98.001823
202.539612 28.444277 98.068489
57.993408 26.677868 101.306595
58.367268 26.671400 100.703308
59.405426 27.397114 100.681046
59.410492 27.403006 100.686531
59.413048 27.407171 100.677933
59.409378 27.398626 100.676544
62.353260 28.448843 99.603600
62.353390 28.447742 99.606041
62.355202 28.449217 99.604301
62.358208 28.443876 99.606354
63.471172 28.214533 99.157471
63.448910 28.168287 99.325691
80.224892 29.395704 101.345741
80.229431 29.368572 101.337074
80.211136 29.388826 101.311020
80.200706 29.359941 101.335030
80.192314 29.388866 101.338989
188.361145 27.192247 100.890221
188.362610 27.191580 100.939964
188.388062 27.189236 100.907303
188.408752 27.195982 100.936691
189.778961 27.334307 99.328926
189.835373 27.340115 99.246544
189.884506 27.344299 99.369133
189.958557 27.352285 99.166748
192.387466 27.595291 100.928322
192.197739 27.577435 99.886528
191.585892 27.515213 101.452591
191.691498 27.527660 101.482201
191.697571 27.522635 101.522820
191.695557 27.527626 101.507843
194.976791 27.853277 98.951591
195.294647 27.910961 100.653992
195.298752 27.894770 100.660500
195.366913 27.889681 99.898018
195.305099 27.870058 100.671387
199.400436 28.127821 101.211395
199.767975 28.062574 101.050591
199.976761 28.058624 101.768501
200.107254 28.093842 101.214386
199.499008 28.163267 101.932510
59.180733 26.875160 104.861839
57.173573 26.766272 104.600227
58.337322 26.656481 102.968956
57.851944 26.516241 102.038887
59.754200 27.740206 103.426262
61.280960 27.855698 103.687050
59.760689 28.116367 104.035217
59.910053 27.212267 104.948936
59.562603 26.808588 103.210655
60.181423 26.895796 103.548538
62.314911 28.689499 104.569740
62.314445 28.688148 104.568840
62.035904 28.057743 104.023109
62.327480 28.368963 104.243111
65.048370 28.140427 104.999771
65.241280 26.943495 104.495033
65.450058 27.573704 104.385925
65.632362 26.883373 104.635300
65.887741 27.366312 104.678238
186.728561 27.023096 102.499687
186.825867 27.023605 102.895851
186.700653 27.023458 102.216850
186.680756 27.018909 102.517563
187.457870 27.070539 103.263527
189.957581 27.337772 104.266891
190.193863 27.368053 103.889549
189.731018 27.306339 104.359680
188.545868 27.206503 102.378075
188.803421 27.187551 103.977272
190.110504 27.356188 103.881577
189.614075 27.311504 103.242050
195.024796 27.854734 102.707924
194.836746 27.833818 103.569046
195.798752 27.931232 104.192299
195.004074 27.851038 103.621399
194.805573 27.832987 103.066444
195.357010 27.888107 102.838310
197.217239 28.074387 104.668564
198.497040 28.200827 104.546822
198.399414 28.191080 104.510780
198.765259 28.228315 104.717934
199.705612 28.163427 102.016319
57.671391 26.832722 106.783226
58.349781 26.547621 107.708359
57.312889 26.945206 105.573135
61.011871 28.668455 105.048607
60.853855 27.971495 106.983948
60.341457 27.956425 105.197380
61.054581 27.534977 107.957909
60.865540 28.097483 106.757751
61.324711 28.294388 107.536522
62.099083 28.147903 106.971634
62.131733 28.171900 107.014809
64.168922 27.757423 106.459747
64.170151 27.760378 106.460434
64.434204 27.924925 106.375290
63.020725 28.007727 105.651115
64.168869 27.759165 106.461151
65.648499 26.859148 105.108788
160.284958 27.881626 107.117233
160.623245 28.304264 106.428680
160.556641 28.251530 106.573448
160.596634 28.246868 106.502075
162.706863 28.204464 106.407303
163.443909 28.139904 106.924271
161.702011 28.101772 107.249550
162.707413 28.145691 106.347946
162.633850 28.148149 106.359306
164.060501 28.234636 107.248489
166.593491 28.714987 107.325043
166.559814 28.846140 107.180229
166.617172 28.836401 107.240479
165.079132 28.330879 107.066971
165.868851 28.448383 106.873779
166.516052 28.624273 107.183434
184.451401 28.639874 106.063400
183.245667 29.105137 105.175217
182.869873 29.243195 105.032120
182.866241 29.223463 105.028641
185.007446 28.249216 106.413895
185.350296 28.225225 106.599701
185.137589 28.248848 106.560982
182.875015 29.242945 105.035561
182.858887 29.242620 105.048492
187.423431 27.165901 105.250626
187.555801 27.357422 106.036217
187.367859 27.479372 105.363449
185.701981 27.845835 106.561371
187.692459 27.680019 105.332359
185.780792 28.064302 105.545296
187.202789 27.812586 105.076515
196.976730 28.055191 107.857155
194.991653 27.856628 107.815201
195.243835 27.880682 107.256813
196.539566 28.007124 105.375832
196.451157 27.998100 105.437424
194.986069 27.853874 107.621788
195.582092 27.913517 106.710342
196.218338 27.976406 106.264290
199.015823 28.255541 105.665169
197.959137 28.150215 106.206985
199.012390 28.255213 105.656464
199.336395 28.290146 107.175774
200.028244 28.361380 107.715324
200.085281 28.367233 107.739067
61.310722 27.231686 108.761421
61.254799 27.013819 109.559479
61.550041 26.538721 110.056427
160.629440 27.184879 108.972435
160.203812 27.230000 108.158554
160.215958 27.200935 108.289093
160.943314 27.320679 109.276985
162.157913 27.708202 109.339439
162.081039 27.644474 109.383278
164.307404 28.377914 109.357582
163.679810 28.256910 110.911606
163.091095 28.017387 109.008209
164.256851 28.273632 109.414612
164.253387 28.298624 109.291351
164.589813 28.332867 108.616508
171.918320 28.516342 109.864136
171.918121 28.600653 109.827744
172.014603 28.593801 109.520210
171.935471 28.604143 109.797806
172.014893 28.627953 109.730370
178.467514 27.667606 109.793808
178.509140 27.649799 109.777702
189.793579 27.422548 108.718102
190.913742 27.517651 109.630554
191.113937 27.522755 110.516533
190.546387 27.530975 110.301437
188.826675 27.162310 109.024323
189.577866 27.379168 108.596733
189.772812 27.415653 109.316032
192.132889 27.579342 110.290100
191.935013 27.557613 110.202850
193.547424 27.704762 109.514183
194.181915 27.768942 109.375343
193.767288 27.727684 109.016632
192.756332 27.645374 110.075722
194.087555 27.762238 109.355736
197.030975 28.068867 109.943352
196.959045 28.051304 109.934601
196.927170 28.060406 109.935905
196.946671 28.061266 109.907784
195.695099 27.927324 108.964706
197.282379 28.086048 108.127068
198.102570 28.168646 108.658073
198.901886 28.248440 108.415039
199.233322 28.281429 108.361893
201.640442 28.518663 109.235992
200.755432 28.436617 108.913521
201.636536 28.550838 109.188438
201.621063 28.519072 109.205551
201.660248 28.520086 109.201302
161.864639 27.095686 112.832024
161.796555 27.134966 113.139877
162.604584 27.760897 113.694466
162.573776 27.849297 112.312492
162.037277 27.357790 113.794510
162.747772 27.615343 113.774940
163.759933 28.347965 111.157776
164.316895 28.440052 112.497269
164.376953 28.447975 112.303596
164.399506 28.483721 112.338608
164.380737 28.506905 112.296730
198.966980 28.276625 112.204079
198.170044 28.181120 112.070702
199.802307 28.237959 112.218178
198.756134 28.258196 112.871193
200.349136 28.426735 112.134544
198.379807 28.268532 111.765488
198.056046 28.219816 111.895447
201.557816 29.388443 112.497032
201.236069 28.230053 111.951393
200.886108 28.370502 112.823059
201.588501 29.421886 112.279686
201.719528 29.361128 112.254181
201.920288 28.800226 112.050980
170.020462 29.133745 115.849007
170.343872 29.426001 115.606888
170.384201 29.442633 115.698570
170.312271 29.548231 116.469917
170.708374 29.466139 116.416740
170.546478 29.219917 116.436531
45.104443 27.264715 118.103294
45.290154 27.858181 118.616859
45.105099 27.228149 118.700165
45.584118 27.279573 117.779587
46.260941 27.029808 118.315720
46.295780 27.630390 118.598656
46.224407 27.332434 118.843513
176.357422 29.702421 128.504364
176.541473 29.764412 127.780731
176.524902 30.084314 128.747101
177.205673 29.748003 127.649315
177.705414 29.977251 128.391220
177.737564 29.977900 128.020950
179.728638 29.926052 127.804634
179.546387 29.943777 127.657555
180.393509 29.997137 127.327469
180.587402 30.093567 127.760910
180.573700 30.180380 127.734573
86.374344 31.208282 94.837624
86.095833 30.454006 95.029366
86.249352 31.152641 94.786263
86.575333 30.383617 95.196320
86.567848 30.439358 94.659912
86.739647 30.931015 95.261612
91.655251 31.232389 99.901443
91.650253 31.248066 99.927277
91.675735 31.216623 99.920982
91.640411 31.210491 99.922035
91.657051 31.225761 99.947517
176.393616 31.418581 102.654533
176.438339 31.435793 102.655975
176.407486 31.421158 102.640991
176.406906 31.442995 102.645821
176.403244 31.455194 102.683273
203.348831 32.773605 118.183640
203.728806 32.635612 117.233780
203.733002 32.626015 117.239677
205.270447 32.631172 118.062477
205.630692 32.823692 119.391670
203.740875 32.589264 117.242409
203.738968 32.642899 117.248817
205.203049 32.759991 118.438766
205.145111 32.756611 119.726250
207.848679 32.796951 118.255470
207.860046 32.789368 118.257072
208.657898 32.650520 117.560318
209.093521 32.287075 117.351715
207.842911 32.794254 118.267464
210.642120 32.346481 117.413879
210.647156 32.352764 117.408485
210.651062 32.354881 117.407967
210.655731 32.349636 117.417419
209.759537 32.662426 118.141701
203.294067 32.739628 120.131279
203.298950 32.769405 120.114960
203.286362 32.766838 120.117767
203.288269 32.759846 120.126747
176.499161 30.157846 128.691971
180.431976 30.457211 127.506989
206.179520 32.848522 119.098312
206.791000 32.858612 118.620720
204.281128 33.165253 120.080070
162.026749 35.950722 24.015850
161.709290 36.005676 24.169792
161.555954 36.107792 24.015100
146.730881 40.329304 88.230186
146.738663 40.356373 88.225365
146.748123 40.370983 88.220589
146.714630 40.349796 88.200134
146.708786 40.354851 88.230377
61.074493 41.268810 117.847519
61.029560 40.811829 117.724762
60.633190 41.118416 117.804520
60.929340 40.781033 117.891075
213.167358 47.100178 78.282784
213.380432 46.286613 78.486710
213.479584 46.770966 78.532837
213.412216 46.280109 77.903183
172.711441 48.502708 85.664703
172.786911 48.147938 85.948265
173.792725 48.857300 85.476898
173.866776 48.368210 86.244972
173.423096 48.139587 86.383438
173.023544 48.484730 85.222549
174.002075 48.614971 85.614113
105.428505 49.418640 146.899139
105.464920 49.450947 146.918381
105.449562 49.409103 146.896820
105.445312 49.418388 146.914215
105.437698 49.372864 146.901382
106.881409 52.260139 90.310234
106.807526 52.342949 90.278412
106.819550 52.315079 90.394463
106.871498 52.258408 90.335976
106.813004 52.300167 90.326683
265.285400 156.693527 149.957611
264.763519 156.814896 149.968628
264.799927 156.294586 149.885803
