ply 
 format ascii 1.0
 comment particle cloud from Fluids_v4
 element vertex 1000
property float x
property float y
property float z
end_header
141.489059 21.226948 101.892418
141.727615 21.252869 101.974983
141.797165 21.262890 101.799187
141.643112 21.240847 101.696884
142.050186 21.291622 102.828850
142.312775 20.344398 103.452362
143.065964 20.310196 103.412476
143.554611 20.555204 106.179420
144.148376 20.678856 105.802177
145.202103 20.633221 106.538383
144.748047 20.601500 107.448570
116.279663 19.177612 110.767921
117.380196 19.154037 110.100662
117.897865 19.884167 108.439888
116.995331 19.075029 110.568108
117.005432 19.075274 110.585701
118.067451 19.396900 109.722649
115.463776 18.226120 111.648888
115.518982 18.515602 111.695137
115.524780 18.403496 111.540886
115.521576 18.513453 111.700111
116.467079 18.446512 111.137047
127.083321 21.244667 101.803421
174.965042 23.476952 101.753204
127.217804 22.506081 102.432739
126.124748 21.050493 102.430733
127.250931 21.894375 102.917320
126.942322 20.722836 102.506767
126.942261 20.722878 102.506836
126.163033 21.004665 102.318443
143.285690 20.887859 104.105843
140.950806 20.971123 104.407333
142.379349 20.745680 104.313171
142.925430 21.197840 102.730377
140.977539 20.979771 104.397202
141.017715 20.831770 104.448273
143.361481 20.924320 104.291534
173.105408 23.706337 104.532585
170.650681 24.360760 104.884384
172.995361 24.071714 102.214180
172.238220 24.024925 103.041031
172.060074 24.109751 104.430344
173.907043 23.933069 103.922485
173.945740 23.729218 102.460014
174.357605 24.400734 103.985229
117.750511 22.517588 107.144798
117.753517 22.500648 107.147736
119.631882 22.449514 106.416336
117.749878 22.515423 107.143448
117.772972 22.524584 107.136467
119.623802 22.449314 106.418564
120.517365 22.879963 106.009514
120.518501 22.882980 106.006401
120.517540 22.880314 106.010010
140.220032 21.696203 105.877777
140.416107 20.919415 105.079842
140.328491 22.133196 106.052734
140.328156 22.127630 106.037827
142.060776 21.256582 106.817482
141.452286 21.186562 107.805832
142.953720 21.028343 106.144165
140.828568 21.308624 107.672150
141.392593 21.646379 105.297279
140.814728 21.310633 107.638496
141.397141 21.197680 107.846428
143.177322 20.783543 105.604332
141.585129 21.233015 107.836983
142.134552 21.203909 105.749619
144.734909 20.821051 106.826012
144.737503 20.760893 107.559517
144.511337 20.600878 107.345291
146.149704 21.009583 107.143608
147.022507 21.231079 107.614456
147.050369 21.235163 107.675743
147.728134 20.902832 106.307899
148.068802 21.373640 106.009453
148.231262 21.259729 105.962708
148.842072 20.943756 106.015709
147.215668 21.048674 107.348503
149.551727 20.892311 106.533234
149.442795 21.146317 107.865364
150.206223 21.517376 106.460556
151.554993 21.242922 106.597000
152.068893 21.456913 107.689323
152.081726 21.680231 107.173965
151.962769 21.709747 106.902245
151.767120 21.637506 106.659576
149.657410 20.912304 106.599068
159.415802 23.052513 107.045753
159.319489 23.039326 107.083557
159.486618 22.545198 106.765327
160.071304 22.704334 106.964546
159.288910 22.609211 107.051521
164.484177 23.256496 106.283188
164.533844 23.183512 106.180634
164.480423 23.311525 106.323975
167.143478 23.022610 107.576462
167.134476 23.020884 107.530540
167.170517 23.023073 107.554001
167.140961 23.020939 107.557617
165.083130 23.120897 106.212135
165.687744 22.774656 107.193291
165.040009 23.228662 106.067673
171.656830 24.536266 106.643333
171.761688 24.048788 106.309242
171.625565 24.499342 106.639473
172.358063 23.493538 105.941360
173.778000 24.488562 105.633865
118.534485 20.241138 109.197380
116.773056 21.148386 108.719490
116.773712 21.150915 108.718910
116.771713 21.146244 108.723267
116.759697 21.023655 108.836136
118.512520 20.325365 108.833374
118.536636 20.270346 108.930077
140.230606 21.467619 109.958504
140.261002 21.154455 110.316864
139.374573 21.352547 109.605003
140.227692 21.467224 109.957130
138.560959 22.698902 109.881416
138.772003 22.291473 109.880234
138.424835 22.328485 110.489433
139.741013 22.249264 111.008072
148.722244 21.591614 110.683266
147.602905 21.580271 110.925354
147.307632 20.969444 109.765419
149.288452 21.154129 108.423958
148.678329 21.682301 108.546898
148.753769 21.935694 109.541702
149.351212 21.458563 110.961761
147.351944 21.361158 108.274834
147.307297 20.970507 109.757263
147.475555 21.563944 110.715446
150.626541 22.104523 110.947899
151.247635 21.624456 109.653969
150.247055 21.214165 109.962425
152.462952 21.432255 110.386803
150.994110 21.494240 108.410316
150.400772 21.240309 108.647453
151.783813 21.498695 109.603035
153.370834 21.837584 109.736771
152.779831 21.423750 109.198738
153.321045 21.831360 109.526169
153.930420 21.605150 110.146454
153.532745 21.859806 109.703163
158.103699 22.574163 109.970558
157.362732 21.795841 109.654587
157.211395 22.519640 109.766518
157.335907 21.731251 109.843430
157.987091 22.410305 109.636818
158.381058 21.906357 109.577538
159.495300 22.708677 108.702583
159.508209 22.728786 108.730072
160.446823 22.688250 108.756256
159.399765 22.708485 108.685875
162.052383 22.874212 108.633675
163.485535 23.019920 109.505791
163.131973 23.007952 108.656097
164.383545 23.219915 109.680290
164.077118 23.231226 109.877533
162.067337 22.933014 108.963661
161.952484 22.886217 108.694984
161.695328 22.780226 108.642754
166.603149 23.317371 108.310310
164.948120 23.206171 108.873474
164.815094 23.190485 109.392570
165.671280 22.836531 108.748260
91.402687 22.995747 113.672073
138.843948 21.042961 111.746986
138.774933 20.943693 111.584579
139.583435 20.758444 111.598663
138.742981 21.052570 111.654160
139.679214 21.591749 111.761375
148.752579 21.402403 111.279709
147.789032 21.719872 111.093857
150.967941 21.815134 111.100128
151.540771 22.048695 111.526855
152.254028 21.953344 111.791016
152.629440 21.861750 111.636330
152.654419 21.888573 111.493469
154.580322 23.392937 112.699409
154.801300 22.523458 111.071831
154.714966 23.906586 113.666687
155.059906 22.224747 111.358398
153.906067 22.531372 112.124954
153.754456 21.905537 111.799706
153.588058 22.441360 112.066185
152.769821 22.282499 111.055328
156.216629 23.781588 113.091850
155.812195 24.165264 112.705322
156.064377 24.151424 112.453217
92.081985 22.337070 115.129875
92.082054 22.336950 115.129883
91.828712 22.668818 115.498367
91.807938 22.182610 114.639252
155.551941 23.663780 114.059296
161.324081 22.537304 123.649925
161.384094 22.282749 123.412903
161.414490 22.686874 126.026787
160.780212 22.389553 123.849701
160.916168 22.433439 125.300819
160.704437 22.193464 124.845711
161.905746 22.673820 124.173042
161.609238 22.382994 124.246559
162.654480 22.830549 124.379463
163.162186 24.112328 125.345482
163.241821 23.744787 125.961998
163.258087 23.645512 125.627045
161.431152 23.619230 126.209984
162.034348 23.619604 126.551170
162.924728 23.384401 126.156044
123.728874 24.208740 101.223274
123.513962 24.176861 101.322968
123.936974 24.043983 101.242393
123.899513 24.249043 101.269913
123.385422 24.063648 101.467827
127.384911 24.503498 100.665245
127.382271 24.501089 100.663322
127.383034 24.504898 100.666260
126.745178 24.398355 101.011703
127.207443 24.370687 100.525734
126.937042 23.220694 101.570282
175.799103 23.986080 101.976151
174.857010 24.279408 101.896065
175.877640 24.095510 100.624977
176.423218 24.272142 101.802185
176.171127 24.382769 101.190308
176.536728 26.958412 101.641968
177.655426 26.900076 101.359856
177.599213 25.696920 101.315369
176.956558 26.131651 101.261620
176.705475 26.062702 102.106186
176.805893 25.708084 100.496613
118.718254 24.478888 104.101013
118.554382 24.349277 104.129112
118.476067 24.497023 104.266449
118.609055 24.500074 104.166031
119.252563 24.117157 104.017006
121.389938 23.925646 103.160576
120.706528 23.824453 104.343582
121.325562 23.868855 103.207687
121.643852 23.713606 103.271126
122.077675 24.182390 103.206505
121.939201 23.780384 103.837669
124.938179 23.155279 103.704353
124.297325 23.269041 103.913757
124.297874 23.268412 103.912804
123.682625 23.718193 103.732872
124.297089 23.269810 103.912788
124.954666 23.787563 102.425499
126.158585 23.039675 102.576912
126.156929 23.038326 102.575478
170.622269 24.646889 104.656822
170.601135 24.627937 104.821808
172.365738 24.906675 102.766464
171.164841 24.841509 103.615189
171.195297 24.845665 103.557526
175.054520 24.585236 104.425316
174.040710 24.568127 102.440094
173.793320 24.539780 102.327332
175.634079 25.467188 104.968018
175.744629 25.602179 104.939766
178.944870 27.580141 103.828499
178.968613 27.578108 103.821396
178.861435 27.562704 103.929474
105.891266 25.834429 107.908432
105.427528 25.794033 107.452843
112.410431 25.842743 106.399071
112.411217 25.849457 106.386650
112.418900 25.843573 106.393547
112.419083 25.849373 106.400406
115.051208 25.031681 107.229912
115.285355 25.230928 107.267303
115.992706 25.381113 107.125069
114.609016 24.860020 105.861229
115.527336 24.538326 105.482109
114.607758 24.860212 105.859619
114.992577 24.915623 105.598610
115.587479 24.573093 107.313972
116.720039 25.133932 106.138420
117.246170 24.182613 106.166145
119.650780 23.493408 105.528061
117.246269 24.187521 106.163307
117.246536 24.181458 106.168053
137.315323 24.101067 107.246948
137.404770 24.739698 107.473724
137.055786 24.731228 107.828926
137.510254 24.724087 107.403992
139.880829 23.537041 106.767632
139.673645 23.879847 106.549095
139.671951 23.878975 106.549446
138.902252 24.263924 106.982346
139.673523 23.879919 106.550568
173.587143 25.664854 105.112221
171.637527 24.702885 106.615311
176.423462 26.796843 106.033691
174.442947 25.765062 105.767921
175.332321 25.482729 105.888680
176.284042 26.689772 106.016319
176.881226 26.880318 105.947609
177.539642 26.781374 106.290062
178.513947 27.455952 105.232155
179.418488 27.612858 106.116463
177.862411 26.765133 106.518394
92.708015 25.734060 109.448738
91.563522 25.595884 110.799271
94.087326 24.472761 110.003860
94.011993 24.355141 110.254189
94.089157 24.472376 110.005020
94.089012 24.472134 110.006104
95.076332 25.937748 110.789398
97.582405 25.543955 109.266983
96.969925 25.610355 110.726204
98.106522 25.508879 110.567879
98.804810 25.860922 109.172173
98.804527 25.861200 109.171471
104.967361 25.963417 108.475456
137.459351 24.778774 109.551239
136.936371 23.587618 108.267601
137.718277 24.332222 110.353584
137.566437 23.406816 108.204048
137.039459 23.531969 110.107353
136.909332 23.412012 109.559113
137.717865 24.332039 110.353676
138.204010 24.354921 109.819252
164.439453 23.462450 109.520119
89.980690 25.764278 113.949516
91.301743 25.693119 111.437965
91.742317 25.945351 112.042702
89.995117 25.774210 113.953560
89.981544 25.759672 113.937569
91.425896 25.275175 112.040108
90.131439 25.663740 113.676575
91.306114 25.751818 111.466400
92.624878 24.720718 111.559082
91.030739 23.268213 113.778374
91.821014 23.763960 113.352119
93.703995 25.230398 112.207382
94.618591 25.595238 111.611259
93.663017 24.932762 112.060539
93.132347 24.389112 113.986481
93.131187 24.391893 113.986603
93.132820 24.388176 113.986847
155.596329 24.567028 113.802315
155.577591 24.558540 114.082253
90.017303 25.303556 114.796555
90.547897 23.497290 114.821785
90.716492 24.051323 115.106918
90.547813 24.560307 115.001755
92.637962 24.599621 114.416794
92.687607 23.655991 115.218658
173.290054 25.922699 140.811935
173.244827 26.596807 140.880234
173.545334 26.565805 140.859024
173.496201 26.490932 140.833969
172.553864 26.604774 141.785995
173.274277 26.068497 142.300140
173.328842 26.561605 142.582809
173.103928 26.680435 142.594177
173.666473 26.575632 142.386032
133.265717 29.331791 29.155481
133.379852 29.077793 28.927114
133.186066 28.913986 29.518938
137.920868 27.640928 99.669388
137.898682 27.640381 99.689598
137.923447 27.673025 99.683456
137.925323 27.651373 99.703941
137.836380 27.694174 99.674255
92.489120 29.056292 103.243767
92.514732 29.057108 103.210358
95.009499 28.206457 104.744240
93.815964 29.079046 102.865173
94.480240 26.579414 104.780937
95.669502 27.925056 104.747719
94.153610 27.945969 104.218742
96.073265 27.535692 104.619919
98.556877 28.581747 104.811806
99.025291 28.956072 104.644409
99.160400 29.016232 104.600594
101.683647 28.568878 104.665131
101.576599 28.781267 104.393440
103.876648 28.360498 104.353867
104.074783 28.670628 104.730835
104.316376 28.577944 104.362144
105.642891 27.721947 104.909721
104.902153 27.609087 104.305481
105.461281 27.732603 104.634384
180.796371 28.163401 103.336937
181.651642 28.414675 104.125580
181.672363 28.353863 104.075356
180.473709 28.168543 103.260933
180.768600 28.047710 104.578781
179.564072 27.835138 104.324959
180.505066 27.730194 103.261803
183.062698 29.046896 104.864876
183.398651 29.639742 104.827393
183.403458 29.223232 104.868896
187.053467 28.018814 104.695854
187.655716 27.857962 104.260445
187.392105 28.081533 104.542702
91.964394 28.811750 107.282822
91.949417 28.189360 107.947899
95.691216 27.617605 106.834435
93.606346 27.903879 106.650497
94.818871 26.582483 107.147507
93.879837 26.657530 105.208412
94.596184 26.694672 107.589149
93.990570 27.798714 107.063622
95.091110 26.672546 107.585617
93.880768 26.659704 105.208519
93.882202 26.657322 105.208603
94.619850 28.355610 106.177635
97.766388 27.768734 107.891685
97.256233 27.844601 105.044983
98.078964 27.375383 107.116005
96.605118 26.794962 106.272377
97.004105 26.692774 105.443726
97.934761 27.046736 105.384377
98.448822 27.273588 105.962837
96.224617 26.757196 105.025948
97.658157 27.870132 107.322212
98.728180 28.151510 106.160492
101.077614 28.652395 106.132645
99.635994 28.680815 105.661285
102.112000 28.890347 107.117981
103.361137 27.110252 107.053925
103.878311 27.770767 105.074944
103.286720 27.352383 107.268890
103.286125 27.352587 107.269394
103.637344 26.335396 107.508278
107.331230 27.783468 107.574104
105.441277 26.466515 106.545509
105.875877 27.469353 105.666679
104.791695 27.618530 106.612106
107.095528 27.496092 106.163895
105.414612 26.314054 106.677406
107.853752 28.467995 105.946396
107.765450 28.340925 106.111465
108.109184 28.845999 105.849312
109.985695 27.172449 107.266800
110.177788 27.024727 107.035629
110.176689 27.025185 107.036903
108.825043 26.625006 106.883904
109.267006 26.701855 107.804138
108.139824 27.734423 106.041748
110.387657 26.802999 107.033783
112.111244 26.033611 106.416718
178.769119 27.731392 106.554291
178.719025 27.686094 106.561554
181.337128 27.798834 105.578911
180.357651 27.966471 107.915794
182.045654 27.850130 107.021782
180.274887 27.968725 106.972343
181.426575 27.750917 105.822075
181.159683 28.003977 106.912781
182.686325 28.777115 106.492485
184.203995 28.733202 107.381317
183.699509 29.002655 107.562408
183.330978 29.037621 105.594040
183.743317 29.298567 106.095383
185.022934 28.606894 105.806786
185.290192 28.988506 105.668861
187.547470 28.069221 105.357811
187.615524 28.017126 104.863602
186.254669 28.967844 105.532677
186.357391 28.707516 106.809883
186.207489 29.143658 106.747025
190.179611 28.704082 106.636185
189.931702 28.859583 106.821388
189.604324 29.619392 106.187714
189.771820 29.515465 106.352417
191.475815 27.891739 106.785583
192.080948 27.966667 107.934357
192.023941 27.966034 106.873329
191.771774 28.214237 107.435646
192.684479 28.401636 107.463615
191.673691 27.913757 106.455498
92.661362 26.277857 109.314133
92.598305 27.051064 109.665062
92.577126 27.033157 109.665276
91.662331 28.387384 108.063774
93.561058 26.504137 108.948410
94.273880 26.340252 109.398216
96.683739 27.385048 108.967827
96.931702 27.837782 108.405472
97.150742 26.063667 110.946556
96.308388 26.236959 110.164734
95.899948 27.071766 108.457962
98.674927 26.721153 108.839554
96.683693 27.385458 108.969238
96.889404 26.164709 110.864113
98.409698 26.352400 110.462784
98.874710 26.398153 109.163223
103.850113 27.179817 108.362366
104.672813 27.450706 108.490784
106.370216 27.392725 108.517570
107.694649 26.795139 108.289116
107.692123 26.797348 108.293732
106.042175 27.228329 108.721550
105.053810 26.552969 108.855400
107.694839 26.792561 108.289055
180.731781 28.027988 108.083405
180.764664 28.017828 108.497452
182.297653 27.936651 108.836540
182.523422 27.958771 108.687065
181.567078 27.840820 108.942429
183.873550 28.723293 108.344933
184.687698 29.097761 108.979630
184.933624 29.088655 108.656326
182.691269 27.977192 108.707428
186.298996 28.879021 108.125542
185.911102 28.827795 108.962715
186.059616 29.347706 108.467255
185.999069 29.326347 108.890839
197.555603 30.322214 109.842384
207.139694 30.373482 110.671242
207.461853 30.444477 110.708061
207.516815 30.360723 110.913887
207.089981 30.405682 110.346230
92.933380 26.710138 111.295784
93.829712 26.680128 111.110435
94.105591 26.400202 111.444466
220.636185 30.328247 121.407890
219.950211 30.365780 120.417847
220.422012 30.407976 120.652290
220.730774 30.035990 121.297478
220.347397 30.407349 121.622330
99.576164 31.878229 98.033142
248.067719 32.111179 98.791710
248.093414 32.006470 98.745094
248.613983 32.207993 98.515831
248.934143 31.901276 98.895287
94.799118 30.478455 101.404572
94.805557 30.488489 101.414299
95.790154 30.967810 100.589111
94.562439 30.169600 101.695602
94.797203 30.482149 101.407707
97.807243 30.298180 100.393608
97.049721 30.842684 101.236496
96.955025 30.870190 101.292801
96.833412 30.817116 101.359047
98.783005 30.383259 99.091545
97.124939 31.335180 99.898651
98.017670 31.733723 98.992943
97.127815 31.333765 99.894958
99.408234 30.754093 99.441147
99.004829 30.421110 99.556892
99.092133 30.460238 99.504967
248.774673 32.085079 99.331619
248.565506 32.169498 99.398918
91.591484 30.054146 103.606651
92.478294 29.088753 103.214310
91.748352 31.249952 104.073456
91.749268 31.251661 104.075745
91.750076 31.250402 104.075546
91.751328 31.251650 104.074730
94.070518 29.531069 103.085281
94.073326 29.548512 103.066063
99.681931 29.465961 104.632072
100.460678 29.781839 104.981049
101.576569 29.120415 104.295380
101.622200 29.752571 104.863213
102.559784 29.126247 104.937805
109.209366 29.873075 104.774307
109.102455 29.939688 104.731094
109.015533 29.955294 104.701027
109.015274 29.955513 104.701027
109.128441 29.283003 104.701706
140.549622 31.571524 104.026901
140.573090 30.899731 104.286835
141.076279 31.193245 104.646782
140.755295 31.651737 103.983345
141.176132 31.580477 104.359344
140.854401 30.821037 104.283661
193.539551 30.557291 104.644905
193.454865 30.392439 104.645432
194.483978 31.791088 104.284378
195.051895 32.176373 104.003212
195.323669 32.386459 104.004868
195.628342 32.452011 104.124611
196.018188 32.483547 104.378998
92.073517 29.715973 105.031326
92.240974 30.859737 105.816185
90.874428 31.647148 107.361099
90.873909 31.646261 107.357803
90.870201 31.639868 107.368607
90.887802 31.645628 107.356010
93.148155 30.782263 106.793541
93.084030 30.836479 106.985344
93.155655 30.672979 107.300064
93.545166 29.335350 107.383545
93.220428 29.936422 105.379982
93.452644 29.179295 105.392624
92.925751 29.300457 105.544365
101.681526 29.455883 107.283035
101.582062 29.873781 106.815559
101.797249 29.568510 107.230934
101.762428 29.612904 107.206818
194.481430 30.881323 105.829422
195.397720 31.247049 107.739471
195.164566 31.415222 107.579056
196.383118 32.536396 105.638229
196.794113 31.910965 106.940063
196.811646 30.862778 106.678238
194.994568 31.206184 107.237862
194.662582 31.086613 105.453003
196.709503 31.724825 105.961411
197.480728 31.875774 105.776894
199.325348 32.244068 106.226662
199.592148 32.336132 106.286194
198.019943 32.238388 106.234451
199.561310 32.365227 106.297455
199.226624 31.413916 107.498505
199.034439 32.100277 107.133232
201.770370 33.176144 107.881989
202.193329 33.344822 107.493683
201.690521 33.112114 107.961441
203.113342 33.216045 106.829781
203.267853 33.404892 107.835732
203.480026 33.335632 106.219017
205.443954 32.457096 107.848808
206.530579 32.661411 107.463875
207.268051 32.818581 107.566338
207.162140 32.817905 107.314484
208.177658 33.451870 106.617119
209.493546 33.476494 105.786507
209.624619 33.539822 105.275215
88.636230 31.278097 109.948463
88.764832 31.216278 110.608658
89.551552 31.561348 110.885834
89.201202 31.005360 109.619835
88.957771 30.902353 110.383499
91.409554 31.984934 110.093468
91.536461 31.964905 109.961258
91.547508 31.692488 110.021957
90.253105 31.494463 108.433319
92.453079 31.110752 108.087410
91.407455 29.349346 108.133072
91.761551 29.132021 108.874443
92.226410 29.141596 108.962219
91.439331 31.068905 109.676399
92.910133 29.449165 108.491180
190.841080 30.980284 109.044128
191.175079 31.250771 109.536499
190.871811 31.069508 109.331474
190.704483 30.780127 109.136932
191.031784 30.706633 108.920860
193.684647 32.291920 110.766960
194.229340 32.000767 110.878098
194.057175 32.134953 110.727470
193.892593 32.181984 110.711777
195.319855 31.501291 108.052193
195.478424 31.878246 110.965256
195.218277 31.757341 109.722008
197.393234 31.442242 108.747208
196.736496 31.213610 108.860100
197.153366 30.668901 108.748146
198.151779 30.792255 108.164803
199.374298 31.451105 109.041573
199.917892 32.529350 109.836906
197.584076 30.845179 109.812218
199.466415 32.003979 110.011421
198.178360 30.840433 109.932053
198.467819 31.416725 110.029610
200.367935 32.159874 108.281693
202.972427 32.520287 109.278915
200.912598 31.844393 110.028465
201.807327 32.061573 109.906471
200.660507 32.622242 109.902763
202.333237 31.519030 111.000412
201.046631 33.137699 108.589134
202.140366 32.209454 110.887085
204.162537 32.889072 108.119179
203.998138 32.539082 109.117577
204.680237 32.376831 108.451912
203.628067 32.115131 109.809402
203.964035 31.780628 110.740654
205.830109 31.546526 110.066170
205.769699 32.426662 108.332527
206.467087 31.631865 109.508789
207.107117 31.310097 109.535706
207.094681 32.120968 108.419197
196.153214 31.938122 111.305771
196.121567 32.025150 111.233131
195.465042 32.207710 111.241890
202.820862 32.041103 111.685661
203.246231 32.040424 111.896996
203.202576 31.521461 111.740860
206.252731 30.741247 111.219940
205.062439 31.444199 111.571091
205.698929 31.316135 111.274986
205.085754 31.587475 111.526817
213.841354 33.648094 112.131012
218.314636 30.709301 121.578377
217.140045 31.261932 121.607964
217.212204 31.301384 120.848282
217.160156 31.324467 121.679245
217.409088 31.389166 120.872818
217.133041 31.301580 121.431786
218.444839 31.480074 121.178879
219.212479 31.003145 121.019363
99.294739 32.391983 98.085136
99.294403 32.392002 98.085075
99.295158 32.391785 98.084999
99.256905 32.341457 99.048347
208.681488 33.757328 104.941109
232.583405 35.615936 104.311935
232.536499 35.587391 104.255142
203.807083 34.168957 105.507088
204.900024 34.323097 105.970230
205.824112 33.911903 105.608452
203.815796 34.130653 105.468010
205.187683 33.888462 105.185127
203.675247 34.177528 105.639595
206.462769 33.616673 105.531845
206.034088 33.671932 105.495186
207.374069 33.537083 106.108551
209.532745 33.746410 105.074699
207.931061 33.736130 105.329018
209.486221 34.063400 105.234550
216.543961 34.451508 105.709114
215.991745 35.012325 106.079826
216.116562 34.985592 105.961472
217.229630 34.517879 106.888588
215.553818 34.748138 107.637749
215.762589 34.367165 106.327965
216.509933 34.511776 105.738640
89.539215 32.316700 109.907425
89.373215 32.260681 110.356796
91.600464 32.162933 109.400177
214.468933 35.926537 108.664299
214.608322 35.281235 108.129135
214.475082 35.929890 108.672890
214.517151 35.794041 108.712212
214.452545 35.936798 108.675087
217.368484 34.084793 108.226128
217.557434 34.863167 108.380745
217.640808 34.726505 108.401115
217.087448 34.712368 108.636314
217.505127 33.885498 108.139122
220.413437 36.139584 109.214966
220.383453 36.199444 109.226616
220.385086 36.169384 109.231049
220.382401 36.179142 109.225716
220.376419 36.235302 109.250877
87.889030 34.099007 113.377434
88.686203 33.547115 113.478333
89.010895 34.119198 112.327103
89.010582 34.119225 112.327423
89.010498 34.118759 112.327950
88.235199 34.429760 113.886055
88.784370 34.769566 113.784355
88.211647 34.631657 113.763840
91.477280 33.971172 113.728699
90.996414 34.237907 113.059288
90.809769 34.376938 113.006836
213.751373 34.245174 111.788376
213.688507 34.235508 112.418877
213.836349 34.138885 112.360619
213.728729 34.556076 111.897141
213.702042 34.675953 112.242950
91.289955 34.222183 114.098892
91.253998 34.222092 114.110115
91.274895 34.290173 114.096611
234.001968 39.080761 97.154594
233.797592 38.792183 97.513458
233.956268 39.075485 97.105049
233.972107 39.085590 97.094559
234.348969 38.570381 98.934906
254.144104 37.448177 97.879974
253.019684 37.253311 97.046066
253.390045 37.817574 97.333015
253.054581 37.113541 97.412079
253.123062 37.022850 96.781647
254.582626 37.328209 96.511322
254.781189 36.611160 97.231262
254.841522 36.829090 96.793533
254.849731 36.693935 97.171143
232.178360 37.970974 100.521332
232.211060 38.013866 100.459808
232.576309 37.856205 101.209526
232.245728 38.050446 100.262367
232.602295 38.248192 99.887413
234.648758 38.574898 99.088341
233.926865 37.830723 100.448250
234.598648 38.703167 99.076881
234.258087 37.456043 101.499870
235.124863 38.055309 100.630219
236.203537 38.096073 101.412689
236.105881 37.641342 101.498642
236.814835 37.856476 99.996513
237.937256 37.934792 101.644531
237.103973 38.245579 99.935318
236.740234 37.853592 99.937347
236.693985 37.497234 101.164925
237.957886 38.191029 101.971169
219.849426 37.559731 102.643127
219.844635 37.601685 102.662872
219.826126 37.614376 102.693718
219.809967 37.615669 102.683311
219.858063 37.597866 102.664116
225.098877 37.585018 103.951782
225.649979 38.701626 104.832169
225.419022 37.149742 104.328850
224.992523 38.063286 104.007370
224.627625 37.766457 104.247849
224.776489 37.372288 104.708809
228.512726 38.944324 104.788933
228.788422 38.785767 104.724327
228.785965 38.664169 104.942894
232.507950 36.407177 104.799988
232.505890 36.970966 103.249863
232.837692 36.592625 104.773010
233.344879 36.909599 102.195099
231.881973 36.486351 103.659958
232.442719 36.525227 104.985863
233.377762 36.942650 102.137627
232.908966 36.332710 102.701134
237.747635 38.585392 102.028999
237.626312 38.309902 103.146881
238.742233 38.336037 104.892700
237.598160 38.230114 103.397087
237.665649 38.243656 103.350777
238.791016 38.330124 104.849060
240.742126 37.607464 104.330429
240.414337 37.472839 104.314751
241.159683 37.743462 104.593536
240.787262 37.647160 104.321136
226.725998 38.383842 105.725189
226.691681 38.381363 105.720215
226.074661 37.800285 105.497040
227.188599 38.361427 105.249916
229.357117 38.112320 106.304832
229.321854 38.278881 105.089622
229.225693 38.642380 106.751610
229.616928 38.185623 106.610497
227.980850 38.459625 106.470261
230.760223 38.592022 107.771652
230.877106 38.479065 107.956322
233.841919 38.260521 106.676720
233.982315 38.254585 106.621704
233.828720 38.799854 107.762344
233.800644 38.297653 106.694084
235.512268 39.083500 106.778465
235.904694 38.697197 105.993607
235.915894 38.738853 106.094185
235.960388 38.622005 106.091225
237.114334 38.527905 105.320747
238.862946 38.941391 107.048820
238.794220 38.907677 106.775993
238.799820 38.815258 107.000969
238.566162 38.551796 105.872772
238.640930 38.651283 106.253670
241.372879 37.237209 105.076950
241.276428 37.043118 107.154236
242.233582 37.200607 107.227333
242.324783 36.797623 107.207878
241.427750 37.183620 105.231606
241.355133 37.368839 107.600563
241.406479 37.300903 107.269913
242.245529 36.714748 107.313644
246.981232 37.480186 107.787506
246.638809 37.297615 107.835793
227.344147 38.360546 108.936859
227.405533 38.166988 108.823166
227.568115 38.752979 108.759926
229.133820 38.771484 108.196106
227.811157 38.577644 109.285652
227.864685 37.883171 108.994743
228.974625 38.427578 108.732979
231.161331 38.849812 108.008354
232.602371 38.271946 109.395813
231.006714 38.734943 108.841072
232.139587 37.767422 108.704178
232.414505 39.211674 109.242012
232.792542 38.310787 109.268585
232.341553 38.306461 109.581932
239.554672 38.984852 109.776268
239.939896 38.899960 109.239372
242.531845 39.189529 110.678734
242.412415 38.882668 110.119659
239.852478 38.896416 109.453377
239.764084 38.538136 108.976280
242.348328 38.824364 110.591484
244.243835 38.755104 108.812592
243.730835 37.831688 108.698624
243.824265 37.880127 108.913612
244.517990 38.867393 108.961937
244.218994 38.599907 108.655739
242.708237 38.293312 110.314186
244.920883 38.849300 109.528687
246.973694 37.674610 108.192909
246.529602 37.500412 108.072975
246.638947 37.158859 108.308533
246.783737 36.942860 108.130653
242.797318 38.953690 111.131462
244.151917 39.240540 111.223755
245.634384 39.116314 111.401871
256.472931 42.214695 91.689308
255.786316 41.065998 92.874657
255.774628 40.613022 93.542610
255.787781 40.608475 93.411224
255.869751 41.161972 93.011650
255.728073 40.606827 93.516129
256.915802 41.479935 94.434395
257.704254 41.986874 94.251656
257.851074 41.894657 94.019783
257.761200 41.644711 94.063271
234.147247 39.583488 97.599823
233.672867 39.307484 107.670540
235.523026 39.401485 107.356606
233.754471 39.366203 108.066933
235.176697 40.365929 109.546379
235.494125 40.415348 109.489250
234.628738 40.191654 109.177673
235.794678 40.424522 109.186462
235.710678 39.900459 108.345436
235.738892 39.986080 109.333252
238.582550 39.396603 109.247826
238.694321 39.348667 109.114807
238.545593 39.484829 109.129021
243.905884 39.567005 110.758072
245.953445 39.431694 110.849533
245.000198 39.559624 111.329521
245.796143 41.169083 113.724762
245.759506 41.381584 113.842720
246.145309 40.714649 113.290871
246.218475 40.875183 113.419800
247.693954 41.350487 113.881340
246.062027 39.442188 111.512787
245.700546 39.732018 111.535446
249.227692 41.315842 111.884621
250.243500 41.307114 111.230492
250.093033 41.524086 111.131813
249.718277 41.275696 113.377190
249.317703 40.705254 111.827148
249.876846 40.448334 112.025169
250.522095 41.503071 112.562416
250.560928 41.568066 111.979103
84.716064 38.697388 114.802666
83.868240 38.703346 115.436539
84.804649 38.742577 114.870583
84.695465 38.663670 114.816620
83.885010 39.514618 115.541901
84.142967 39.621891 115.598785
84.072601 39.719723 115.306984
245.741089 41.919609 115.766830
245.800156 41.964832 115.779381
245.779877 41.945827 115.771149
246.289917 40.592590 114.453087
245.887955 42.193420 115.712013
247.269318 42.215599 115.928680
247.602264 41.839958 116.027229
247.352173 40.858932 114.481552
248.158142 41.755802 115.843536
249.149185 41.459457 114.279106
248.765457 42.039009 115.007019
248.808029 41.495262 115.402130
249.144592 41.498341 114.337646
257.005463 43.174782 91.044044
256.463196 42.867718 91.313820
256.585449 42.552551 91.288109
257.868683 43.425323 91.875511
257.902100 43.155365 92.427353
257.911682 43.024418 92.611794
257.703552 43.368793 91.250954
257.442932 42.312080 94.013481
151.125183 42.323719 135.408279
151.099136 42.316509 135.408615
151.104050 42.318352 135.432816
151.135818 42.291752 135.435287
151.098236 42.346336 135.437119
143.530045 46.746952 92.900063
143.515808 46.761791 92.919472
143.540817 46.778011 92.908211
143.509003 46.781879 92.884315
143.514679 46.800610 92.904739
169.672348 46.832947 92.545441
170.274307 47.557770 92.599731
168.960892 47.239815 92.567986
169.171463 47.234501 92.127136
170.171509 47.858078 92.541176
169.897614 48.073273 92.706818
169.055328 47.588634 92.932854
233.830551 60.028442 86.755669
233.828186 60.238060 86.729454
234.265106 60.087574 86.682762
233.332367 60.428181 87.233200
118.380089 60.768860 94.823624
118.380020 60.794392 94.842918
118.380020 60.765728 94.860825
118.408234 60.787739 94.849197
118.407837 60.759518 94.838676
138.237244 62.863701 143.974289
138.029510 62.710594 143.700912
137.881607 62.497639 143.931702
137.995209 62.789532 143.815094
202.872940 110.939285 110.118874
202.838440 111.012650 110.169029
202.024460 110.826324 110.380226
