ply 
 format ascii 1.0
 comment particle cloud from Fluids_v4
 element vertex 1000
property float x
property float y
property float z
end_header
127.382744 46.651176 107.727135
128.364777 46.114246 106.847519
127.901482 46.234192 107.005722
129.025787 46.350288 107.515465
129.099136 46.829590 106.712624
201.160080 46.906357 107.561722
127.998322 46.899185 108.515121
297.700134 47.558102 98.765587
297.657593 47.396618 98.877892
103.187012 49.099411 101.949707
102.809036 49.790913 100.541512
103.112274 48.964390 101.432190
102.680992 49.641487 101.490982
160.412262 49.795246 100.358269
161.201660 49.710838 101.735817
161.246643 49.548634 101.040367
159.421722 49.818741 101.488304
160.220673 49.843819 100.438477
209.742676 48.914257 101.834923
212.734467 49.424141 100.542534
211.223816 49.088169 100.810631
211.907013 49.352760 101.408875
211.187195 48.931252 101.679634
212.943207 48.613777 100.220711
212.458969 48.839569 99.936287
212.974121 48.565399 100.475815
212.924011 48.627743 100.173004
210.468414 49.062717 101.993492
261.099915 49.802299 101.929550
261.105286 49.806572 101.929825
261.070770 49.803642 101.939949
269.082520 48.756561 101.866302
268.912903 49.098991 100.957047
269.501099 49.607460 100.389801
268.928040 49.718136 100.701950
269.513489 49.958378 100.594780
269.447357 49.623066 100.388039
270.701843 49.686050 101.511734
273.078247 49.792229 101.843300
295.755402 48.679115 101.698311
296.715515 48.295666 100.400726
295.625916 49.009037 101.833893
296.089447 49.045891 101.396973
297.903656 47.366543 100.934341
298.475586 47.321922 99.827011
297.006622 47.809063 99.483192
298.363739 48.235561 101.595528
297.667450 48.569828 99.275032
298.589691 47.955498 99.145744
298.578339 48.287189 99.694679
103.165207 48.932785 104.267876
103.130226 49.928501 103.822052
102.747620 49.080338 103.924843
103.484764 49.477020 103.604568
103.285339 49.595844 104.547981
105.057808 49.894669 104.759209
105.091827 49.702896 104.750824
108.005760 49.401882 103.014442
105.125595 49.677944 104.732056
108.835144 49.796471 103.199997
108.016830 49.392910 102.980843
108.015114 49.343658 103.015327
108.073204 49.396099 102.959496
109.230309 49.253441 104.042511
110.963676 49.128658 103.822876
109.785156 49.256451 104.248619
111.904282 47.642269 104.638344
112.576477 47.804653 104.583298
112.577873 47.797226 104.593231
111.040680 48.895855 103.593170
111.258614 48.610458 103.540619
111.423141 48.121361 103.676720
116.205811 48.888535 104.892395
115.167923 49.866455 104.312233
115.302620 49.291729 104.220200
121.257484 49.521309 104.889534
121.232994 49.417522 104.771591
121.301193 49.476753 104.935890
121.350883 49.360901 104.930984
122.730232 49.741199 103.896187
124.385803 48.574558 104.821053
123.062881 48.824661 103.793976
124.141724 48.750717 103.738037
124.628937 49.359344 104.510208
123.602921 49.247501 103.478561
125.704002 48.988785 104.457001
123.595001 49.265953 103.482155
127.431770 49.648872 103.465843
127.310257 49.091351 104.455292
126.743477 49.051743 104.377495
132.838928 49.643066 103.713226
134.218628 49.793892 103.532700
133.794830 49.459644 103.507607
133.033524 49.684830 103.683418
135.293686 49.107430 104.183708
137.031586 49.768822 103.056160
136.909271 49.813858 103.810463
135.054443 49.809341 104.211021
136.611328 49.891979 102.998352
135.753082 49.416069 102.959473
135.452942 49.138367 104.161896
136.973557 49.655178 102.996880
139.140549 49.947010 103.619041
140.126190 49.614685 103.657036
138.610306 49.015724 103.526787
140.105804 49.370430 103.258430
139.869720 48.958923 103.919388
140.019058 49.542683 103.252975
138.560089 49.108437 103.941986
143.952438 48.359058 103.760513
143.092438 48.114323 103.219582
142.167877 48.341217 103.474174
142.294601 48.336521 103.365639
142.375748 48.852360 103.657318
142.242859 47.945484 104.177261
146.416992 48.944199 104.424103
144.061249 47.691582 104.446465
144.060547 47.691154 104.447678
145.883514 48.851017 104.802666
147.720795 49.055229 103.314056
147.697891 48.957302 103.225670
147.328415 48.902245 103.078506
147.771866 48.723984 103.487389
147.301346 48.887856 103.083008
151.576218 48.988064 104.859070
151.568542 48.987713 104.860023
152.115219 48.593979 104.812744
153.725418 49.072216 104.562180
155.272751 48.524231 103.929176
154.738739 48.341934 103.400887
154.757980 48.030361 103.758667
154.722397 48.337318 103.401619
154.734390 48.341316 103.402107
157.208359 49.116291 102.466156
158.234650 49.788326 102.036255
157.758896 49.762020 103.298042
157.895004 49.342991 104.207779
158.432098 49.758324 101.997902
158.011887 48.056602 104.501579
158.002441 48.787716 102.034027
157.138000 48.701885 103.451889
157.855179 48.386589 105.006233
157.498428 48.502956 102.637741
160.441589 49.728867 103.344833
160.858139 49.691635 102.459183
159.083817 47.883915 104.664963
160.247177 48.726231 103.708801
160.117249 49.802368 104.350250
159.468216 49.026882 102.968033
161.426086 48.961151 103.604591
164.769257 48.263954 104.612282
162.720917 48.535805 104.493622
164.596054 48.066509 104.751045
164.624527 48.328888 104.252357
164.682571 48.086666 104.494659
164.726349 48.302921 104.644966
162.662170 49.365345 104.314499
162.608521 49.521442 104.459030
169.253265 48.386555 104.438583
170.342499 48.117725 104.069145
169.693024 48.120182 104.182861
169.124069 48.515446 104.708672
169.769226 49.036972 104.962234
173.945480 48.844986 105.000786
172.626755 48.751888 104.853714
174.007797 48.372902 103.790100
171.956223 48.288342 104.291992
172.301193 48.360950 103.898499
171.266098 48.822166 104.318527
172.119370 48.636333 103.915329
174.052155 48.851444 103.525536
176.886124 48.871384 104.866142
175.895813 48.466984 104.404327
176.135925 49.754696 104.011551
176.592239 49.067860 103.720566
174.249649 49.258255 103.642540
174.336792 49.430908 103.814705
176.218216 49.430935 103.719902
178.097015 49.234783 103.456070
178.665192 49.568138 102.497719
178.817276 49.198772 103.993858
180.104401 49.578064 103.856438
181.070404 49.492222 103.657318
184.743408 49.480423 104.533005
184.656113 49.752750 104.903603
185.620911 49.234280 104.161293
188.160492 49.785858 104.118324
186.901230 49.930454 103.927444
186.708069 49.340797 103.988716
188.041245 49.877670 104.063980
188.101791 49.776951 104.083397
194.745285 49.844879 104.838104
193.902359 49.796375 104.535072
197.107925 49.372032 103.687119
197.123581 49.211376 103.722275
197.054138 49.385338 103.675140
196.533157 49.161800 103.777695
197.159927 49.380505 103.723679
200.915192 48.750088 104.006805
200.817993 48.624447 104.211761
200.957443 48.849968 104.034660
200.859344 48.761879 104.089821
201.250412 48.785549 103.972374
206.978302 48.694752 103.072395
206.335388 48.381126 104.454567
206.177673 48.233364 104.500832
206.194977 48.622978 103.784142
206.164459 48.239098 104.495224
206.480530 48.135311 104.558022
209.066528 48.908520 103.287056
209.001144 48.516266 102.044128
208.463943 48.659729 103.595497
208.742645 48.752342 103.465027
207.955368 48.700581 102.463051
207.821136 48.323681 102.654152
210.471588 49.059639 101.993645
215.556671 49.234474 103.875320
218.267746 48.570877 104.178780
217.558670 48.605709 104.252289
216.821594 48.864330 103.218086
216.490448 48.731873 103.774307
218.080536 49.579311 102.689034
218.211777 49.712383 102.742477
218.341263 49.876774 102.873375
219.658234 48.576008 104.773827
219.577057 48.754925 103.632912
220.655533 49.346176 104.275520
219.935730 49.380096 103.475906
220.547867 49.869499 104.651970
227.016846 48.558182 104.193634
227.785339 48.446049 104.432320
226.349014 48.893250 103.513344
226.288284 49.438633 103.090820
226.939102 49.898125 103.583008
226.506882 49.127327 102.433357
226.672913 49.083019 102.306664
227.707291 49.090199 102.178375
228.700790 49.110672 102.991501
228.453247 49.731739 103.819046
228.099594 49.168785 102.340553
228.861969 49.119366 103.666634
228.540451 48.571499 104.127922
232.051331 49.197971 102.554382
232.059006 49.205494 103.653381
233.363495 49.035824 102.579483
233.481583 49.111675 102.833122
232.605392 49.600418 104.557281
232.137497 49.400902 102.433495
233.043640 49.689011 102.479080
233.231857 48.350304 104.918518
233.229187 48.350624 104.919769
232.643097 48.813995 102.235344
233.228485 48.349342 104.917778
234.701920 49.546021 104.853722
235.195251 49.414009 104.839760
235.650513 48.395283 104.745598
235.337128 48.303875 104.429573
235.523010 48.274006 104.949089
235.697586 48.476692 104.756386
239.765076 48.964100 104.957672
242.483200 49.577900 104.941704
242.961990 49.088074 103.480141
242.795349 49.419048 103.158424
242.461517 48.986095 103.395683
240.835266 48.771198 104.611359
243.249786 49.521225 103.464890
245.691010 49.525066 102.967705
245.573471 49.076611 103.853462
244.160995 49.492397 103.485886
245.064331 49.508190 104.074081
246.114716 49.521938 103.190239
246.076828 49.865837 103.635582
246.192581 49.695621 103.447029
254.643051 49.155048 104.143585
253.874878 49.961960 104.740219
253.668259 49.950874 104.746292
253.471848 49.870628 104.588554
256.605347 48.778122 104.047043
257.542633 49.036171 102.939323
257.869720 49.597252 102.885445
255.703857 49.281307 103.089615
257.671478 49.757690 102.840408
257.866699 49.600376 102.884125
257.867310 49.599880 102.883095
260.801788 49.630806 102.193207
263.281921 48.989182 104.688347
263.036591 49.091496 103.909134
262.281311 49.230099 103.303566
263.037994 49.087639 103.912117
262.193542 49.146931 103.032974
261.022217 49.534706 102.860199
265.039276 48.382912 104.329826
264.300781 48.550259 103.739677
264.877563 48.409641 104.108986
265.087006 48.480267 104.350060
269.994293 48.551197 104.957314
268.810272 48.544941 103.859024
268.290039 49.312077 103.172729
269.022003 49.847576 103.331985
268.269379 49.254429 103.069435
269.964020 49.925507 102.927048
268.271454 49.286041 103.085220
271.310394 49.792576 102.502357
270.992889 49.499054 102.614777
270.993866 49.499699 102.619102
275.895142 49.413891 103.417496
274.100189 49.441742 102.310982
274.590698 49.814484 104.512939
273.677124 49.417885 103.556961
273.912079 48.982754 102.754356
274.948669 49.872318 103.473381
275.182617 48.499008 103.938751
275.173615 48.500816 103.927559
277.369537 49.720165 103.894241
277.483429 49.051601 103.091118
277.038269 48.807896 103.922104
277.713745 48.500412 103.713127
278.581390 48.278511 103.701111
279.373077 49.253571 102.729813
279.109985 49.875195 102.769470
279.663940 49.264637 104.427361
279.887695 49.133217 103.278755
279.294434 49.628464 104.638542
279.516022 48.807514 104.318909
285.826569 48.492367 104.773628
285.298035 48.870621 104.482422
285.471191 48.803276 104.452744
285.088745 48.760586 104.574707
285.112396 48.610916 104.562263
296.184357 48.245426 102.122025
297.159454 47.582088 101.951111
298.078522 48.564388 102.096931
297.880768 48.507374 102.326935
297.889252 48.583103 102.298462
103.264854 49.228992 106.555374
102.749695 47.885876 106.255806
102.770195 48.262726 106.614639
103.494011 48.847534 106.545647
103.171112 48.403408 107.147453
102.785591 48.270195 107.139862
103.525414 48.679829 105.533440
106.413025 49.104984 105.696838
106.850540 49.336082 105.794655
107.063461 49.535439 105.668198
108.917824 49.913742 106.202415
108.919922 49.913635 106.202011
108.918068 49.912842 106.202858
108.918999 49.914955 106.201775
109.864922 48.867809 106.410721
110.446434 48.763165 105.198334
112.393044 47.651325 105.773193
111.108521 49.209435 106.607300
113.697777 48.946247 107.317741
111.109756 49.209023 106.607834
113.961609 48.770870 105.987679
111.114143 48.373814 107.450401
113.904228 48.358559 107.894737
111.604424 47.740498 106.678635
113.305099 47.692940 106.608650
111.548447 48.000351 107.548996
111.720505 48.874268 107.697021
114.762344 49.836136 105.044617
114.939705 49.171158 105.851723
116.693550 49.074356 105.209122
114.180626 48.229485 105.131538
114.179909 48.235382 105.127945
117.037300 49.471069 106.144119
125.399406 49.287182 106.034981
125.415192 48.400570 106.185059
125.384102 48.262630 105.904106
125.454597 48.760231 106.420021
127.430885 49.735554 106.822823
128.967392 47.097641 106.638481
128.848633 47.575428 106.997902
126.674316 48.676735 106.837219
127.470650 48.198933 107.224983
127.155739 48.876568 105.364006
132.863541 47.772633 107.885841
132.758881 48.740067 105.297318
134.086609 48.813351 106.262611
132.641556 48.569447 105.666504
133.825836 48.673084 105.203835
133.975296 48.899704 106.161293
132.215286 48.866035 106.800011
132.345825 48.988159 106.267586
132.538589 49.104733 107.381241
135.151642 48.029575 107.742699
135.183182 48.305683 107.588287
135.151306 48.029774 107.741333
135.152115 48.029575 107.742455
138.659958 48.607407 106.050613
139.076508 48.607861 106.933838
138.661377 48.620117 106.052696
140.698547 48.245033 107.300491
140.711945 48.249615 107.319252
140.222458 48.233002 106.739189
138.662445 48.615925 106.051193
138.875504 48.967827 106.014343
143.700287 48.446724 107.952896
142.426331 48.404339 106.040756
141.106491 48.931305 107.108727
142.847458 48.215908 106.182053
143.325714 49.041142 105.061119
142.742126 49.067493 106.083595
142.598129 49.420540 106.682732
143.374924 49.130817 107.868073
146.098816 47.836372 105.203285
145.158707 47.730499 105.241089
146.622040 47.667034 106.021149
145.548737 48.260319 107.440804
144.263214 48.750736 107.609558
145.920105 48.527721 107.426025
146.976746 48.459450 107.174469
145.152618 48.894978 105.040276
145.549652 48.259357 107.440720
145.099945 48.894997 106.353798
149.410675 48.950493 106.405106
148.206604 49.042213 105.932564
149.875702 48.583054 105.247887
147.699554 48.869789 105.738327
149.403564 48.726318 106.532555
147.397110 48.016235 106.678497
148.200089 48.697838 106.769707
149.875397 48.584518 105.247742
152.622818 48.958344 106.703644
151.206970 47.886662 105.309067
151.923615 48.443558 106.760826
150.146591 48.040813 106.153313
151.926849 48.417088 106.751457
151.941986 48.389244 106.741058
155.606064 49.717388 107.849403
153.767502 49.352337 105.721565
153.772125 49.357414 105.703766
153.056213 49.651867 105.647163
154.737244 48.632072 105.719833
155.349976 48.694763 107.425163
155.873978 48.832935 105.925545
155.221939 48.669250 107.279610
157.453598 49.898804 106.967392
156.120407 49.250935 105.930168
156.151505 48.407837 107.045441
158.438522 48.147972 105.337418
161.296753 49.193329 105.608658
160.129913 49.029896 105.531784
161.894974 49.477451 105.498360
159.681946 48.232357 105.333832
159.225418 48.828999 105.600121
162.586670 48.768223 105.155006
169.426544 47.576691 105.366844
170.215469 48.335964 107.385445
169.867584 48.845306 106.371872
170.038696 48.179890 107.336861
169.480347 47.748631 106.534973
169.516815 47.767784 106.637199
173.768265 49.045105 107.820717
172.412659 47.912617 107.087509
173.962585 47.739117 107.147179
171.291504 48.121380 106.382278
172.649857 47.918880 107.088333
171.922287 47.906357 106.989197
175.886246 49.243298 105.195618
175.473343 48.077503 106.586067
175.285233 47.907055 106.721268
175.285233 47.908562 106.724182
175.305771 48.545750 106.778214
174.376434 48.419170 105.732964
178.177277 49.627583 105.302826
179.183884 49.607620 105.220612
180.055145 49.694901 106.982994
180.507172 49.062420 106.564232
182.226730 49.454281 106.223648
182.205475 49.432453 106.219604
180.038101 49.685318 106.978050
182.232773 49.460472 106.222054
180.043915 49.698292 106.971123
183.234421 49.689575 107.920555
183.699066 49.105904 106.767624
183.236145 49.683071 107.921265
185.520538 49.773693 106.588593
185.896378 49.552212 107.240822
184.256607 49.181282 105.083740
185.180527 47.978428 108.004982
184.821350 48.527782 105.149048
184.571945 48.690262 106.092873
185.180527 47.979122 108.003029
187.286499 49.512428 106.783195
188.961227 49.779915 106.393478
186.298050 48.049934 107.832077
186.538162 48.639664 106.259529
188.969452 48.486946 106.042923
186.275436 48.632160 105.192322
188.524841 48.419167 106.259743
188.931290 47.941803 107.433372
187.160172 48.267803 107.876846
191.250671 49.179489 105.770088
189.346725 48.953224 107.684959
190.627106 49.141388 105.258141
191.481247 49.398041 107.889183
191.392319 49.688465 105.973564
190.397125 49.795578 105.247231
190.583298 48.762341 107.018311
191.829208 48.724689 107.368370
189.668839 48.967842 105.042793
193.797699 49.886829 106.902885
194.022614 49.818974 106.709496
194.846176 49.584793 105.234169
193.808990 49.123768 105.946075
193.247711 49.537148 107.922600
196.993454 48.376778 105.751015
196.935989 48.399628 105.688858
197.068695 48.532654 105.873924
196.931625 48.397251 105.689255
198.969696 48.063732 106.417610
198.588455 48.423996 106.049011
200.496567 48.305504 106.845741
198.935745 48.065426 106.405052
198.971848 48.064236 106.415298
200.050552 47.451576 107.558617
200.643387 47.045940 107.679947
200.919449 47.252136 107.943100
201.607773 48.612183 106.745705
202.674362 48.296921 105.139824
203.139694 48.673649 106.064445
203.155151 48.675606 106.068764
202.872650 48.890812 106.090637
201.799744 47.759327 107.720993
202.882538 47.570511 106.151253
202.290283 47.278812 107.020332
201.962021 47.723694 105.481796
208.454071 48.614525 106.254585
209.504974 48.549263 105.719223
207.908112 48.047997 106.380188
208.153412 47.803379 106.945335
209.879532 47.764927 105.423134
208.127701 47.794273 106.918808
209.224960 47.576542 105.480186
208.218140 47.818092 106.993538
211.932007 48.968952 106.522026
211.723389 48.108162 105.967323
210.999084 48.047562 106.803352
211.051178 48.043968 106.799103
212.827347 48.482517 107.167336
210.109985 47.372349 106.672562
210.643539 47.469254 105.814262
213.253128 49.500977 106.766449
213.213455 49.446087 106.858200
214.008560 49.465542 106.130333
215.289841 49.392952 105.449760
213.741806 48.220028 106.410316
213.814224 48.427204 105.871422
213.332916 48.356846 105.739883
216.571945 49.656765 105.990723
217.380814 49.740990 106.095749
217.623718 49.278049 106.559624
218.400696 49.869423 106.410477
216.587296 48.640045 105.347046
217.729538 48.672722 105.869820
219.218185 49.563778 107.460243
220.449631 49.850460 105.394829
219.125092 48.728981 105.740463
220.114136 48.849506 106.838425
220.807495 49.515636 107.937256
219.340073 49.612461 107.491020
221.264557 49.363083 105.690506
219.294754 49.523235 107.502365
221.258347 49.852791 106.690735
222.934753 49.384155 106.344902
222.789581 49.369034 106.242371
222.935028 49.385811 106.344795
223.208603 48.984604 107.871017
223.003586 49.263557 106.418083
227.117325 48.465599 106.686783
226.491074 48.767570 106.587593
226.491409 48.764610 106.586365
226.492935 48.765419 106.588989
226.525269 49.031322 106.011665
228.412704 48.893929 106.122704
229.550293 49.202728 105.443253
228.788422 49.776627 107.477020
228.077621 49.780365 105.910011
230.383881 49.136520 106.404022
233.642380 49.640003 107.335815
232.454865 49.210209 106.570564
233.639175 49.628590 107.343163
231.755936 48.946224 105.464882
233.644043 49.634892 107.344810
231.180939 49.347572 105.966263
233.064728 49.929890 105.731911
233.646973 49.637669 107.345001
236.331924 49.817947 107.325485
236.329742 49.807388 107.438423
236.378357 49.840672 107.375122
236.391739 49.816612 107.377899
234.775116 49.772099 106.210617
235.939331 49.657738 107.633080
238.795670 49.494061 107.787514
238.762863 49.812969 106.104225
239.114105 49.782570 105.429771
239.196442 48.914944 106.568764
241.253128 49.644676 107.508476
240.310913 49.148560 107.156548
242.871475 49.198425 107.847427
240.988113 49.016560 106.093689
240.671799 48.719429 105.219421
243.760574 49.156643 106.103783
243.661926 49.001877 106.293907
243.699799 49.081299 106.121239
243.611664 49.163013 105.780052
251.605087 49.883686 106.335945
256.272308 49.769806 105.021118
256.461578 49.202095 105.462822
256.931946 49.339790 105.353691
256.603912 49.323700 105.489471
256.994232 49.291485 105.299988
263.668365 49.716984 106.515259
265.016785 49.065140 106.540512
264.782379 49.971840 107.621536
264.067230 49.688339 105.712646
265.118439 48.540306 105.518784
264.590973 48.578320 106.011543
269.224457 48.988079 105.710999
269.202301 48.950905 105.683426
269.212646 48.961063 105.687164
268.919312 48.633888 105.073296
272.138763 48.936638 106.819649
271.536499 47.815762 106.070763
272.482452 48.280575 107.198280
270.882233 48.884930 105.669106
271.518188 48.244347 105.513161
272.563324 48.606850 105.595726
271.393250 48.196842 106.628426
275.581268 49.225666 106.487289
274.243896 49.342575 105.284706
273.807312 49.062378 106.307976
275.702423 49.189087 105.674400
275.840668 49.427067 105.103302
275.972931 48.845432 108.003593
274.966400 48.037643 106.383041
275.093414 47.924160 107.804146
274.735016 48.025379 106.267204
273.112305 47.796783 106.287224
275.976959 48.728664 107.513489
273.376038 48.264732 107.419342
278.265076 49.659588 107.124039
278.568573 49.300323 106.856987
278.309204 49.887383 106.599098
278.253235 49.667542 107.094299
279.923004 49.521404 107.774307
279.777435 49.846882 106.395508
286.439667 49.094204 106.603165
285.295807 48.521038 106.068443
285.953522 48.908295 107.051498
285.952515 48.894840 107.049088
285.954041 48.895847 107.045593
113.712357 48.370335 108.145317
113.581757 48.357098 108.222702
113.001503 48.262897 108.294067
114.825050 49.359600 111.021011
115.012794 49.071613 110.982002
114.695213 49.591198 110.797897
115.340172 49.080795 110.553833
114.925247 49.238518 110.060455
114.895615 49.371284 110.087090
121.858536 49.436939 108.577827
122.458260 49.443291 110.201485
121.408592 49.492210 108.661949
121.085869 49.487644 109.090225
121.776619 48.825966 109.375900
124.810966 49.670963 109.326920
125.519356 49.635738 108.583862
124.885139 49.526974 109.656036
125.919792 49.204659 110.037086
126.750229 48.066505 109.526802
126.168991 48.139229 108.538666
126.801468 48.056736 109.515762
126.741455 49.169189 108.959503
127.012474 47.517925 109.163185
128.160019 47.590294 108.450874
133.003708 48.099686 108.434319
132.994034 48.098927 108.429169
132.693604 48.243542 108.272728
134.486420 48.506161 108.404610
142.659103 48.201389 108.172943
142.384476 48.698277 108.287613
141.900833 48.222977 108.101906
155.889862 49.430656 108.063927
157.253159 49.961582 108.070465
172.186752 48.824520 109.348564
173.862488 48.404217 108.459259
172.242493 48.093887 109.033821
171.307526 48.088619 108.064522
172.032913 48.954140 109.170502
173.489349 49.326729 108.705162
172.329636 49.185471 109.267967
173.628250 49.145508 108.783386
184.656982 48.895424 108.931244
185.390991 48.215088 108.500870
183.799438 49.646748 108.650620
184.850998 49.793781 108.297455
183.705093 49.409897 108.692833
188.332520 48.347073 108.202293
187.977982 48.181919 108.094330
188.895767 48.781849 108.049126
191.861893 49.384800 108.212242
192.945068 49.369526 108.172638
192.320908 49.361103 108.345467
221.285431 49.138992 108.136902
221.704910 49.475246 108.523186
222.792282 49.420959 108.619751
222.794571 49.429077 108.615913
222.782166 49.392906 108.630150
238.927307 49.751617 108.058044
242.665436 49.633537 108.613258
242.695312 49.578724 108.545059
274.923553 48.812305 109.398979
275.433319 48.377739 108.900070
273.887512 49.507622 108.438416
273.838562 49.021984 109.052940
275.772461 49.184650 108.513069
273.967285 49.477356 108.983986
274.089783 49.525349 109.070450
280.813263 49.739998 108.086105
202.053375 48.269463 111.622032
201.318924 48.040779 113.078735
203.515656 48.525883 113.750473
203.433701 48.397057 112.314453
201.178192 47.835762 112.304573
201.427536 47.675190 113.021843
201.577881 48.228176 113.272385
202.886292 47.910755 113.417976
202.113159 48.260574 111.627098
202.147324 48.273853 111.629425
204.051727 48.037220 113.096321
204.675201 49.185123 113.602242
204.694946 49.083271 113.659760
204.765915 49.112877 113.529213
204.710709 49.067852 113.070389
103.117233 50.222473 101.488853
105.484543 52.153118 100.514824
104.521263 51.197258 101.076439
104.926888 51.603626 101.491203
105.088371 51.834080 100.326180
105.419815 52.378258 100.804726
105.504288 52.267929 101.360420
161.034302 50.177364 100.501762
160.738815 50.442654 100.650307
178.466125 49.979626 99.246452
178.144089 50.344585 101.648926
178.161087 50.437836 101.753494
178.465637 49.984344 99.245575
178.466064 49.984287 99.246056
178.904572 50.616535 101.170609
178.554626 49.984921 99.238228
178.890518 49.989605 99.578560
178.343674 50.679043 101.513573
249.411316 52.178631 102.010620
249.588013 52.044182 101.631760
273.171753 50.067280 101.958954
290.059174 51.289665 101.545769
289.865753 51.195358 101.613907
289.924103 51.170895 100.722664
289.377045 51.243706 100.949379
289.366791 51.162437 101.010330
290.198242 51.486576 101.100136
103.094322 50.133457 103.121437
116.753471 50.336235 104.492958
116.058434 50.683205 104.585068
116.544533 50.657940 104.614853
121.690552 49.980988 104.616539
127.457329 50.212570 103.483963
127.325958 50.021778 103.503014
128.382248 51.009586 103.721344
129.072830 50.010002 104.028671
131.368622 50.737640 104.147079
131.227707 51.299942 103.147491
130.973846 51.285526 103.109833
131.521164 50.133160 103.757675
129.213821 50.220745 103.676506
130.067993 51.384056 104.072365
130.825623 51.261551 103.104301
129.012527 51.239777 104.312180
132.313141 50.637295 103.460106
178.060547 50.504074 104.764748
177.925903 50.439747 104.896164
178.111221 50.525620 104.704552
179.434937 50.528351 102.665260
179.541321 50.483231 102.786110
181.664368 50.157394 104.122253
181.615845 50.165527 103.651917
181.619751 50.160267 103.660034
181.435349 50.030159 103.308640
193.738251 50.324020 104.688072
193.240173 49.999771 104.929909
215.986313 50.724590 103.076462
215.402359 50.294888 103.584091
215.583008 50.175861 104.824196
217.248978 50.631477 103.117149
216.181198 50.629498 102.825127
216.355408 50.779442 102.941978
219.621948 50.006477 103.917145
241.038147 50.029934 103.220665
241.103073 50.031689 103.197189
240.872345 50.037758 103.302643
240.441177 50.297104 103.801353
240.231934 50.499294 104.822594
249.152908 52.463211 101.902878
249.270554 52.363659 102.220024
254.845551 50.056751 102.384369
254.090775 49.994247 104.714653
254.961487 49.999111 102.369186
253.748688 50.003857 103.369499
254.963074 49.998585 102.368065
254.962173 49.998096 102.369461
272.212433 50.155762 102.716713
273.202606 50.152164 102.044586
278.105042 50.171951 103.667435
279.250336 50.189720 103.182419
293.800629 51.962093 102.848892
293.772186 51.240433 102.003883
294.118988 50.818874 103.104080
294.268097 50.372585 102.739998
294.900757 50.063389 102.345062
294.947144 50.029095 102.286949
294.246124 52.214893 102.338707
294.406464 52.206253 102.440735
294.396362 52.200302 102.438774
104.932777 50.118015 104.982239
106.035706 50.526337 106.072693
106.227333 50.117596 106.384117
105.521881 50.220642 106.265366
116.942528 50.605988 106.503510
116.668755 50.625969 106.480614
117.015297 50.566372 106.510391
117.349281 50.320549 106.363983
127.479942 51.030251 106.126053
128.933105 50.610111 105.203552
127.946358 50.247158 106.635902
128.465012 50.883671 105.868141
127.375626 50.944607 106.225029
127.140518 50.791115 105.984955
156.929611 51.408234 107.982826
156.831604 49.962292 106.346741
157.429962 49.977383 106.894753
161.079697 49.972393 104.995399
159.573959 52.757248 107.525230
159.591080 52.788116 107.524193
159.716629 52.779400 107.614670
181.615219 50.069870 105.981400
180.110367 50.180305 106.362839
186.178314 50.248432 105.355347
187.075485 50.043129 105.872025
188.140915 50.309471 105.139992
189.910370 50.067703 105.671516
192.725021 50.131470 106.531509
194.355957 50.620258 105.390236
215.673706 49.984779 105.210403
230.126389 50.341934 105.632584
230.556839 49.973000 105.526070
229.715622 50.135887 107.516235
228.823288 50.651413 107.151535
229.843353 50.451969 107.353943
228.385895 50.050694 107.262268
229.728287 50.818901 106.217964
239.979431 50.496719 105.910889
238.554459 50.057892 106.715614
240.551132 50.610229 107.495140
242.748215 49.982609 106.904976
241.420761 49.990532 105.320045
244.351608 50.098091 107.390800
251.294586 50.297371 105.711761
251.477463 50.205170 106.483734
251.641541 50.395290 106.470009
251.632111 49.985249 105.502289
251.872299 50.690037 105.829643
262.316864 50.857315 107.362984
263.508148 51.298115 106.886032
263.180298 51.434929 107.975388
262.349487 51.252449 107.376472
262.444946 51.275440 107.174156
265.101349 50.121384 107.018814
265.100983 50.125965 107.026596
279.308594 50.718380 107.127754
279.554291 50.746620 107.131493
281.487183 50.601383 106.922920
281.856812 50.508911 106.890442
283.071899 51.186783 107.305092
283.582550 50.475998 107.713608
282.438660 50.506008 106.873100
286.143799 50.134384 107.815620
287.479980 50.234711 106.887192
288.976654 51.382420 106.587151
289.022797 51.079819 106.061790
289.039276 50.799850 105.985184
289.267914 50.945766 107.167564
288.944000 50.600750 105.992805
288.312012 50.258587 106.607948
122.036652 50.235046 110.258621
121.967094 50.064766 108.726921
122.327782 49.977474 110.321396
121.934944 50.060768 110.383575
125.193504 50.147064 109.436546
125.202393 50.150841 109.457901
156.736969 51.380775 108.038734
156.640121 51.352783 108.041908
156.835480 51.385941 108.055061
158.730408 52.707043 108.834213
159.517624 52.461540 108.635246
224.487518 52.496689 110.665718
225.011810 51.955330 111.153145
239.143616 50.360352 108.165001
239.570236 50.105518 108.727730
240.583618 50.791130 109.217125
240.994858 50.525745 109.348381
241.035477 50.769215 109.296219
242.306625 50.617039 108.665688
241.165726 51.118221 108.634285
245.049026 50.132896 108.524818
245.076157 50.032776 108.588554
245.081329 50.069954 108.573677
245.038483 50.048023 108.693161
243.997955 50.003197 109.050697
251.781677 50.758286 109.959030
250.476120 51.515026 109.984406
250.470383 51.515526 109.980919
249.447571 52.711460 110.165253
249.798508 52.129250 110.654961
250.119888 52.205273 109.507240
249.449554 52.718475 110.091759
249.464722 52.726662 110.161896
252.566833 50.835670 109.321243
252.590546 50.852406 109.333054
253.000595 50.881535 109.872513
252.911316 51.014984 110.076874
252.705841 51.243408 110.150795
256.023987 51.809456 108.383499
256.041199 51.790649 108.377792
256.012817 51.773582 108.388344
256.009583 51.787903 108.365265
256.000977 51.887547 108.364777
262.828796 50.563416 108.047653
263.870575 50.720955 108.224007
265.852936 51.592461 108.979462
265.859497 51.588001 108.969101
265.844635 51.590309 108.987488
265.800476 51.176414 108.671318
265.845520 51.606018 108.969894
281.814758 50.620754 108.671089
280.922485 50.355301 108.458206
280.977142 50.381149 108.473335
283.521576 50.594753 108.188301
283.564331 50.590134 108.108292
283.033081 50.832275 108.564186
287.361420 52.842812 110.422173
287.348816 52.849022 110.422256
287.347565 52.844856 110.422691
287.349854 52.840729 110.422997
286.676514 51.471401 108.223877
286.675507 51.472237 108.218040
286.822968 50.695789 108.539055
287.853912 50.971367 108.386772
286.682434 51.479111 108.221313
290.016266 52.140022 108.913727
289.633789 52.016094 110.154869
290.091766 52.500099 109.233551
289.373413 52.940136 110.354080
288.196136 51.581593 109.499199
289.674042 51.582092 108.808502
289.666473 51.627171 108.738243
224.828903 52.186604 110.916885
225.107208 51.951843 111.256317
191.986328 52.590153 116.068298
191.967224 52.572956 116.075310
191.979736 52.583996 116.088829
191.980255 52.616592 116.109474
191.976364 52.598461 116.100990
158.492767 53.379120 108.495689
158.625565 53.530552 108.555794
159.261703 53.712109 108.584999
289.508514 53.073544 110.024696
288.429688 53.385578 110.361214
283.641541 59.919239 98.501823
283.509094 60.450043 98.707497
283.867615 60.213017 98.776016
283.718567 60.536060 98.560234
153.842514 64.407158 114.852448
153.887711 64.584915 114.926956
153.512314 64.381752 114.874161
153.760040 64.510536 114.900711
240.835175 63.724995 114.593903
240.789688 63.808483 116.189957
240.999603 64.160027 116.002670
240.982590 64.172699 116.001228
241.249054 63.972298 116.095215
241.091919 62.706608 114.677147
241.107193 62.809338 114.573006
241.419479 62.742306 114.877853
240.450119 62.805878 114.980865
122.284348 70.756691 97.535797
122.501442 70.376701 97.370705
122.882202 69.375755 97.413887
