ply 
 format ascii 1.0
 comment particle cloud from Fluids_v4
 element vertex 1000
property float x
property float y
property float z
end_header
128.155319 31.795467 72.280991
128.430725 31.482126 72.512444
128.380630 31.546494 72.714859
148.714401 42.953846 128.040939
148.546875 42.907135 127.953751
148.525940 43.113514 128.035782
148.697968 42.955841 128.196594
275.141266 45.651039 98.855827
275.518127 45.982716 98.933846
274.327087 45.770512 99.619102
273.940948 46.078918 99.186874
275.390472 45.740837 99.094795
273.972870 46.921505 99.437271
275.378540 47.036457 99.255791
274.492584 47.340694 99.271637
274.551758 47.348969 99.342552
260.049561 50.203674 103.027573
260.267883 50.216362 102.979034
260.155396 50.088970 103.165985
260.161133 50.301876 103.192535
212.218781 50.279099 107.739365
212.211655 50.247250 107.673676
212.220947 50.281921 107.634140
212.283585 50.336964 107.692841
135.835068 49.582275 110.540466
134.918488 49.457703 110.770706
135.415237 50.902843 110.272156
136.180283 50.731873 110.178970
136.182251 50.726311 110.174072
108.480438 50.271412 113.269012
108.200302 50.631615 113.649445
108.479118 50.274906 113.270683
107.744576 50.845955 111.846397
108.181122 50.106678 112.759956
134.701569 50.194748 111.021500
134.853012 49.704147 111.181602
134.936951 49.652039 111.212212
107.570877 53.748280 100.235123
107.786041 53.676651 100.706413
107.005379 53.543602 101.456596
108.156898 54.145378 100.547379
107.921463 53.792442 100.574310
158.923492 52.482574 101.557549
158.936905 52.460548 101.576630
158.907257 52.509434 101.556389
158.937881 52.492302 101.543419
103.754227 52.801731 103.851730
103.756447 52.783844 103.853767
103.749207 52.794231 103.842529
103.419533 53.464260 104.079315
104.813515 53.171978 102.605965
106.014763 53.636665 103.867424
105.986290 53.624153 103.897598
105.019592 52.839493 103.525993
109.617340 53.202042 104.620033
109.065086 53.364967 104.605080
109.300720 53.907425 104.360794
109.379036 53.190517 104.702003
110.597885 53.759514 104.315117
112.717773 54.041897 104.335922
142.652054 53.110909 102.943367
142.678406 53.085159 102.858231
143.651123 53.388908 102.290733
143.545731 52.821056 103.141724
143.587372 52.803383 103.011726
143.797897 53.946667 103.357590
159.910995 53.727737 102.615906
159.931854 53.868755 102.977928
159.325500 52.460526 102.419533
159.084473 53.899464 102.981857
254.294464 52.885639 104.086937
254.629990 52.656643 104.970131
254.723984 53.110622 103.725708
254.969254 52.542675 103.966805
256.350128 52.961658 104.468460
255.299011 53.245548 103.763779
256.969055 53.086124 104.844170
257.722137 52.402527 104.997620
258.673553 52.870888 104.619278
104.431107 53.905682 105.148033
104.712112 53.761311 107.320129
105.384171 53.459953 106.235863
106.220734 53.682758 105.276329
105.693748 53.260830 107.260117
105.694458 53.260620 107.256584
109.913773 53.549713 107.376892
109.052338 52.989727 107.846962
109.052177 52.990532 107.848114
108.042122 53.733196 107.881645
111.437737 53.750416 106.280457
113.424248 54.050877 105.380417
111.449348 53.893864 106.429657
111.160622 53.818424 106.568169
137.367447 53.888054 106.108582
136.009354 53.422504 106.868454
136.942184 51.871452 107.910362
137.453308 53.901569 106.633301
209.382568 52.675926 107.811600
209.373993 52.369900 107.832878
209.623672 51.957954 107.377502
209.261139 52.513123 107.607590
210.844757 52.832558 107.443726
212.532578 53.097958 107.430016
212.734894 53.398777 107.297050
209.983734 51.731125 107.645317
211.522064 51.298489 107.963120
211.332794 50.863953 107.439293
212.609390 53.210690 107.491699
212.702591 53.646770 107.576195
247.456131 52.767818 107.804871
246.020966 53.195305 107.825539
247.068878 53.689907 106.438446
257.627228 53.419144 105.397285
257.615143 53.039581 105.653046
259.875275 52.455742 105.277458
259.900970 52.493618 105.311996
259.872498 52.512833 105.221992
258.990021 51.911613 105.294258
259.226624 52.473656 106.214973
101.148560 53.849426 108.836700
100.958923 54.072182 108.520226
101.039284 54.008633 108.954468
101.456070 53.963020 108.201569
105.246750 53.792599 108.072090
107.428757 52.987389 109.641159
107.479729 53.363461 109.818375
107.798096 52.667156 108.978638
107.755898 52.673153 110.517853
109.521843 53.915653 109.695976
108.247253 54.006760 108.630753
109.099052 52.326931 109.841545
110.565758 51.813519 108.868599
110.214394 52.428303 110.327072
110.318481 53.040222 110.668655
108.175247 53.456951 110.253029
110.730728 51.967194 108.321045
111.434357 53.376129 109.799026
113.267220 53.929092 109.086731
110.806290 51.982517 108.363197
110.827385 53.999741 109.820152
111.526924 53.505428 109.486496
110.734360 51.969944 108.318695
110.995728 53.740974 108.045631
114.624336 53.306763 108.231361
113.922562 53.529373 109.625076
115.958054 53.672859 108.173271
115.181175 53.414131 109.549995
114.054527 53.881577 109.770622
113.903320 53.908722 109.709412
115.975624 53.672604 108.215851
137.550644 52.278320 108.315475
137.381104 51.595261 108.920334
135.316696 52.791615 108.389610
135.274887 53.091595 108.391098
135.331772 53.001106 108.460999
135.446716 52.733681 108.580482
136.602493 51.162128 109.344734
137.556610 52.261658 108.344383
137.560379 52.238007 108.488586
173.879700 53.820824 110.753746
173.866272 53.846729 110.756737
246.401474 52.571781 108.114906
246.373016 52.587952 108.109497
246.940460 53.119774 108.659004
247.938583 53.559772 108.062798
107.334991 51.130867 111.949623
106.399017 53.428902 111.699799
107.035622 51.954418 113.215286
106.191841 53.589298 112.089806
106.875107 51.418205 112.953941
106.193085 53.590446 112.093269
106.193474 53.591282 112.092758
106.261734 53.127068 112.933029
106.855713 52.412270 113.119476
109.628929 52.246174 112.250938
109.630585 52.245449 112.251099
108.218948 51.577984 111.436485
109.088371 52.459663 112.613869
109.087570 51.607334 113.388763
109.539589 52.372349 112.274628
173.671844 53.185043 112.080017
172.987213 53.466770 111.607193
174.295746 53.265602 111.128265
173.784622 52.840199 111.883293
173.790863 52.779602 111.798378
204.292145 52.183079 130.142929
204.263275 52.551216 131.708878
204.854172 51.887703 130.231461
204.489822 51.903187 130.072357
204.405075 52.062874 132.022141
204.163574 51.720257 131.960983
204.429245 51.336311 130.329422
203.605270 51.620800 131.184494
204.907974 52.058327 131.775772
275.869690 56.279427 96.690262
275.864655 56.287682 96.827614
275.779114 56.390343 96.928345
275.773346 56.372135 96.605484
104.768120 54.430984 101.745087
104.705048 54.173309 101.867722
107.601997 55.954292 99.197716
105.090164 54.594296 101.290054
107.807495 55.884567 99.166428
107.826370 55.808376 100.154152
106.015068 55.021172 100.729370
106.602310 55.324509 99.803398
105.999619 55.018101 100.742218
107.809860 55.883274 99.166641
108.083298 55.238373 99.156006
140.239532 55.653477 101.667679
140.247040 55.654835 101.658829
140.245544 55.653030 101.665871
139.156570 55.277874 101.844635
139.549194 55.617496 101.641029
142.332886 56.179512 101.563469
143.118179 55.060585 101.972816
143.077118 56.277752 100.970398
143.125580 56.297592 100.965019
143.098755 56.291126 101.000824
143.093170 56.282516 100.965485
193.975754 56.462093 100.802940
194.674255 56.751274 100.671745
194.557602 56.513493 100.707748
194.078873 56.800434 100.234184
103.725624 55.255268 104.171593
103.667152 55.589409 104.738571
104.387001 54.530098 102.513374
103.736107 55.267101 104.171371
103.726784 55.264091 104.177444
106.620827 54.421398 102.647797
106.795921 54.446995 102.421745
106.765984 54.398663 102.493835
106.933250 54.675873 104.977867
111.986908 54.532570 104.253418
112.098755 54.515682 104.236221
111.594009 54.523533 104.305115
116.144608 55.672657 104.235756
114.639221 54.429726 104.616776
115.500275 54.527599 104.971542
114.255699 54.516426 104.568474
116.560310 55.965660 104.092812
114.054832 54.245598 104.639236
117.183083 55.879917 104.855850
119.409943 56.135784 103.984215
119.504616 55.986847 104.217812
117.396126 56.525558 104.150009
116.787758 56.073807 104.047020
118.202217 56.906925 104.482742
119.403946 56.433826 103.864807
121.890305 56.305859 104.005417
122.062363 56.640579 104.358154
122.313896 56.595600 103.993446
121.892151 55.776260 104.709747
120.383125 56.640709 104.483963
122.937698 55.717155 103.935959
123.531799 55.915558 104.274063
123.739517 55.958443 104.595474
135.446335 56.056721 103.909920
136.356857 55.265114 103.835999
135.454346 56.063091 103.899582
135.452576 56.061001 103.909790
135.455185 56.066929 103.908455
137.473495 55.301048 103.108078
137.524216 55.381653 104.518814
137.996780 55.189007 102.886482
140.695908 55.045052 104.726410
140.693100 55.033882 104.725189
140.132660 55.531342 104.019577
138.851501 55.311478 104.386818
137.989548 55.192043 102.884842
138.540863 55.757908 103.187897
140.700012 55.038963 104.733307
142.366974 55.097813 103.164246
142.358017 55.091648 103.164192
141.021545 55.463223 103.062920
141.502090 55.069061 104.238686
143.727158 54.371738 102.950073
157.296143 55.363186 103.876900
156.751251 55.105335 104.595818
157.451691 54.997913 104.011314
157.762817 56.074181 104.806778
157.294769 55.361240 103.878830
159.071625 54.976658 103.895645
160.174011 54.349747 103.787025
160.183441 54.355820 103.801781
196.427338 56.337303 103.812805
196.525513 56.415821 103.624390
196.608459 56.432041 103.480988
196.243088 55.997658 104.934242
197.099228 55.584015 104.014244
198.147186 56.491356 102.932411
199.469116 55.782909 103.884796
198.296310 56.103882 102.918854
198.220001 56.107456 102.895119
199.374283 55.597130 103.955627
200.777817 54.804844 104.874184
200.782578 54.808693 104.866669
200.921005 55.454597 104.781387
200.778595 54.806625 104.870560
213.722504 55.497616 103.529526
212.810028 55.731171 103.600983
213.295593 54.956425 103.579498
212.826920 55.782753 104.503654
213.501938 55.175888 104.634392
212.838776 55.962513 104.118469
213.828247 55.123772 103.955505
224.475769 55.738499 104.769737
224.422363 55.664097 104.776527
222.246521 55.138367 104.820366
224.423035 55.665245 104.775810
222.196259 54.946339 104.943703
224.256348 55.555576 104.701225
238.645050 55.579258 102.758400
238.621384 55.559219 102.744820
238.657257 55.547329 102.739670
238.647583 55.562317 102.716682
238.636658 55.584671 102.728355
243.912506 55.921017 103.353752
243.853714 55.094143 104.377373
243.673920 55.486401 103.475403
244.858337 55.252167 104.916473
242.884811 56.090061 103.730247
242.815125 56.224342 104.041252
246.216888 55.085598 104.611023
246.633820 54.491364 104.822456
246.999344 55.063023 104.976578
103.806137 55.660336 106.062294
102.664108 54.944679 107.826836
103.870644 55.556908 106.517426
103.229919 55.374184 106.888275
103.242279 55.365376 106.896355
107.336967 54.352993 105.247879
106.240822 55.538937 106.209473
105.847656 55.284424 107.170792
105.158211 54.908100 105.599037
106.798775 55.469402 105.732506
107.018570 55.386620 106.759865
107.119530 54.630699 107.465584
106.163017 54.200508 107.988289
109.548416 54.316048 106.024673
107.952522 54.511627 106.241241
110.506577 54.714649 105.350182
108.677834 54.140049 105.748413
112.245476 54.667488 105.988777
113.383659 54.963596 107.709343
113.299255 54.743511 107.913643
113.132858 54.713150 107.405937
114.634209 55.295025 106.418388
114.717064 55.258057 106.856384
115.814323 54.458004 107.868340
113.791779 55.318203 107.209633
115.283882 54.678410 106.165962
116.061943 55.356262 105.246887
118.851219 56.124851 105.541847
121.779526 54.489483 107.250885
121.297112 55.496426 106.974327
120.062782 56.317024 106.651649
121.295418 55.495636 106.975304
121.526558 55.098751 106.620644
123.512016 54.125523 107.190918
122.900719 55.838573 106.285332
123.500443 54.609322 106.387619
125.314606 56.376064 107.175323
123.543350 54.827076 106.185020
123.940163 55.801483 105.337173
125.093704 56.091930 105.849190
123.933929 54.250027 107.643616
127.633827 56.233383 107.292267
127.992134 56.438175 106.590797
126.176064 56.293049 105.569603
126.687309 55.423466 106.568359
128.384277 55.768456 106.852516
127.148346 55.608555 107.536194
127.993561 56.435902 106.589546
130.362137 55.618587 106.112518
130.361298 55.617908 106.115204
130.359222 55.615585 106.120613
129.204926 55.934914 106.103767
130.359039 55.617466 106.115288
132.773483 55.920330 107.097382
134.030243 56.495014 105.954567
132.373581 55.210583 105.624596
134.668594 55.289829 105.510521
132.890976 56.080364 107.111313
132.800873 55.779541 105.245079
133.444824 56.392139 107.008690
132.079163 55.679955 105.424675
133.090454 55.663113 107.158417
133.093369 55.512886 105.208839
136.241211 54.393543 107.048912
137.224167 55.016365 105.485580
134.807114 55.608707 106.385567
134.919296 55.717106 105.890381
135.306473 54.162842 107.232315
135.407623 54.284603 106.865471
138.103210 54.738567 106.256920
138.303726 54.548470 105.972084
138.344925 54.940300 105.802719
153.070084 56.881977 107.189781
157.791138 54.805923 107.357140
157.105957 55.401115 107.159721
156.367798 55.832611 105.280266
156.463867 56.378620 105.745461
158.695984 55.111057 105.373657
158.577591 55.076015 106.308083
157.862259 54.803608 107.318275
156.423279 56.634682 105.205376
157.966049 54.931965 107.345398
157.106155 55.399830 107.161766
161.564484 55.335194 106.434975
161.692612 54.466209 107.078514
161.704605 54.317562 107.001442
159.794937 54.449524 105.752426
161.015594 54.230515 105.455353
159.850555 55.050201 105.291306
160.406693 54.105148 105.818909
161.388229 55.101761 106.891029
164.065491 55.077793 106.525589
162.171646 54.350666 106.129555
164.249878 56.269176 107.503807
164.540253 55.721035 105.460526
163.808121 56.016483 106.797714
163.806366 56.016945 106.795555
163.070023 54.871849 106.540443
165.729889 54.983978 105.076332
165.631134 55.909107 107.582672
164.927078 55.397636 105.149063
166.274094 56.139233 106.779449
165.092819 55.278976 105.078857
166.460373 55.017818 105.519936
166.488174 55.024582 105.533875
167.112061 55.728558 105.318443
167.307388 56.286983 107.507538
166.055664 56.106236 107.560669
168.442291 55.584045 105.337959
168.645905 55.944405 105.420738
169.753387 56.210453 107.785538
167.815094 55.902813 107.215919
168.749496 56.000370 105.541695
169.060577 55.770756 106.561859
168.846863 56.028759 105.691093
174.557861 56.358948 108.020935
175.237579 55.843067 107.987221
175.547897 56.523426 107.985802
192.636551 56.651775 105.083023
193.821396 56.869495 106.048340
192.391754 56.805798 106.016418
196.179520 56.623116 106.241020
196.410751 56.560265 106.148758
196.891220 56.322437 105.693062
199.106125 56.406754 105.297760
198.842255 56.330887 106.529922
199.780212 56.489071 106.666885
200.243866 56.053577 106.096199
199.041565 56.435127 105.139717
203.039276 54.667675 106.960960
202.853668 54.947102 106.355186
201.594971 55.272804 107.559158
202.617996 54.740219 106.512070
201.230820 55.025852 106.242111
201.193237 55.872543 107.778427
203.457428 54.836777 106.780083
205.175598 55.860104 105.385307
205.094101 55.831749 105.289925
205.102463 55.821320 105.397102
204.819748 55.992245 106.110313
203.988571 55.697861 106.790329
205.026764 55.797897 105.387489
209.601120 54.284992 106.758102
209.524826 55.236034 106.659180
209.432404 55.140961 106.268669
209.600143 54.286221 106.762344
210.497177 55.788731 105.960960
210.951508 54.953575 105.834473
210.497192 55.790295 105.965263
211.026794 55.511871 106.115196
211.492813 54.043972 106.829292
212.530655 54.467758 107.178551
214.485703 56.763165 106.428932
213.565918 55.863426 106.777756
213.584686 55.869583 106.827591
213.559814 55.869694 106.776024
216.874680 56.528091 106.060257
216.871475 56.524975 106.060204
216.872726 56.527187 106.061348
216.871552 56.527340 106.062035
218.134766 56.643383 107.744942
219.396179 56.213497 107.909935
220.546646 56.270126 107.023636
220.310043 56.413895 107.197922
221.374390 55.963917 107.050652
220.310425 56.414062 107.197388
221.593842 55.462036 105.806923
221.640533 55.378311 105.711143
223.285278 54.849525 105.041031
222.013931 54.947601 105.144630
234.659409 56.711342 106.399185
244.640533 55.991264 105.032600
244.617050 56.029701 105.025375
246.198349 54.392296 106.108383
247.131073 53.982597 106.131538
246.618927 55.501163 105.107933
246.987595 54.984283 106.177460
248.194565 54.477646 107.799049
252.632431 56.514099 105.167908
253.647415 55.436867 106.589554
254.092651 55.694973 107.577133
253.608124 56.105354 105.671333
253.645630 55.437389 106.587624
253.644394 55.434959 106.585457
254.322433 53.796104 105.186890
254.333374 53.814873 105.198471
256.534760 55.324493 106.217415
256.542633 55.319180 106.219376
254.790695 54.490547 105.880402
257.120453 55.596897 107.783470
256.037109 53.750343 105.475464
255.908157 55.607357 106.083977
257.141510 56.221977 106.833481
255.827957 56.203308 106.507469
259.281677 56.476547 107.635086
259.304596 56.522026 107.645187
259.530548 54.364536 106.609047
259.527588 54.360073 106.602524
259.532654 54.353516 106.609169
259.281525 55.463459 107.351036
259.538940 54.363956 106.611534
101.637306 55.410904 109.003532
101.260582 56.612194 110.373169
101.266785 56.611916 110.370667
101.269028 56.617130 110.370934
101.770523 54.407387 109.300247
104.170082 55.551315 109.064804
104.340569 55.796627 108.550644
104.274719 54.595802 108.737869
104.174141 55.553787 109.055565
101.994461 55.421581 108.377708
104.171013 55.541271 109.068039
110.344994 54.108620 109.542274
116.012115 54.194077 108.191628
115.451836 54.158230 109.403862
122.006401 55.420876 108.119743
122.777473 55.775269 108.223663
123.047333 54.286358 108.223328
124.055855 55.749935 108.424667
123.131058 54.937561 108.625496
124.307121 55.903839 108.226753
125.468376 55.436951 108.142212
125.807320 55.462597 108.006241
125.806442 55.462513 108.005394
152.479797 56.890514 108.531525
154.144135 56.052509 109.642342
155.237183 55.262848 108.803223
154.744080 54.670200 110.974701
155.584900 56.105282 110.204147
155.493500 54.402054 110.821854
155.539841 55.500099 110.958694
154.663361 54.552238 110.786369
154.620972 54.679008 110.865257
154.546173 56.018650 108.993019
154.260437 56.377102 108.902252
156.196991 54.801426 109.582687
156.216583 55.174477 109.190620
156.217361 55.174377 109.191002
164.564590 55.649319 109.899101
164.632538 55.680210 110.003372
164.200775 55.855717 108.918678
164.200531 55.856876 108.923172
165.633118 56.934387 108.619659
164.730240 56.644123 110.190613
165.664597 56.368214 110.315453
167.100327 56.349808 108.864799
166.225571 56.475063 109.970856
170.605072 55.575172 108.047493
170.607895 55.575047 108.047585
168.722183 56.806717 108.314644
169.572418 56.123363 108.933594
170.645050 55.551147 108.070335
168.048264 56.898708 108.421356
172.481567 54.576019 110.821640
172.332916 55.280853 109.564774
172.495514 55.017384 109.727478
171.485367 54.722187 110.078873
171.535477 55.423588 108.575760
171.499924 55.260578 110.267128
171.499954 55.261139 110.267532
174.541412 56.008430 108.058723
175.337570 55.996376 108.249550
174.540100 56.321579 108.098976
201.365997 55.697964 108.470642
203.288300 56.295139 108.874825
203.614777 55.596996 108.572380
202.266861 56.325008 109.020050
202.405640 55.211754 108.949318
203.362564 56.073048 109.098389
203.232468 55.943386 109.268318
218.676895 56.737576 108.891022
218.032700 56.554253 108.745193
218.082336 56.537952 108.748650
246.294113 53.753304 108.097847
248.425583 55.227852 108.076218
248.418747 55.229027 108.086777
248.477188 55.385452 108.007484
249.575211 56.185307 108.310913
254.614792 56.179123 108.874825
254.615540 56.179417 108.875603
254.718964 56.116249 108.997063
256.958282 56.071674 108.126465
256.821381 56.326687 108.120163
255.348740 55.671982 109.095627
255.686295 55.280918 108.500313
268.332550 56.619022 109.288841
269.108154 56.644703 110.038376
268.837341 56.206303 110.291237
100.973740 57.096146 111.926392
100.163803 56.456387 111.578903
100.443695 56.977943 111.932617
100.473854 56.738899 112.047890
100.857582 56.020683 111.653503
103.819153 56.412067 111.727295
103.186623 56.823257 111.127457
103.531525 56.657120 112.168541
103.596504 56.796787 112.130829
103.653877 56.653973 112.141739
103.306755 56.743248 111.111580
266.406067 55.693314 113.533340
266.405884 55.692738 113.533768
266.405884 55.690018 113.532608
266.406281 55.691875 113.533859
267.709625 55.811268 113.999275
269.025360 55.910664 112.988823
269.064484 56.118721 112.100349
268.956635 56.324158 111.247955
268.542175 55.169460 113.315567
268.118256 55.057529 113.544388
268.796478 55.294662 113.062759
268.828644 56.545326 112.074783
180.596878 56.557030 119.476227
182.077072 55.865452 121.236153
182.258957 56.583046 120.519218
182.337189 56.220558 121.067406
180.058945 56.631645 120.421280
180.676605 56.106190 121.213158
181.184280 56.099308 121.562576
182.345505 56.121220 120.825348
180.516602 56.886234 121.096581
276.530151 57.966915 94.444916
276.654053 58.844200 94.036980
276.237671 58.188904 94.618225
277.618958 58.878513 94.744125
277.493622 58.943230 94.389839
277.543518 58.801697 95.343338
276.393188 58.831772 94.230820
276.059204 57.162380 95.868675
251.668701 58.328922 98.103302
251.668854 58.329414 98.103058
251.669159 58.329807 98.103600
251.669708 58.329082 98.104164
251.740265 58.672768 98.256119
277.220367 58.153297 97.454773
277.349792 58.578941 96.271576
276.519073 58.066334 97.422607
277.392548 57.710991 97.518623
277.374481 57.010403 96.729630
277.292175 58.076950 97.473488
156.732910 58.798687 99.483093
156.719986 58.769825 99.471802
156.745438 58.773300 99.453255
156.652878 58.825047 99.450310
156.733780 58.801502 99.457123
191.631577 59.015427 101.803001
192.625092 59.682026 101.370056
194.013947 57.238659 100.785477
194.000305 57.218346 100.823395
192.658066 59.742149 101.417618
192.673630 59.703838 101.454002
251.595047 59.486862 101.216049
250.306503 59.530453 101.532295
250.120377 59.234367 101.289421
250.146881 58.932934 101.220161
250.945847 58.540951 100.549644
250.091644 59.071892 101.705475
254.102478 57.385376 101.408539
252.949142 58.763939 100.933121
252.389267 58.661270 101.276459
252.248413 58.522434 100.262276
253.921249 58.173836 101.596352
254.102631 57.383789 101.411667
252.167786 58.588062 100.124870
254.102722 57.384605 101.411903
254.099197 57.384842 101.410202
119.421074 57.132751 104.415710
127.244202 57.801586 104.224930
127.150742 58.387520 104.206947
127.255478 58.355259 104.244370
127.160797 58.386974 104.210640
127.319305 58.304436 104.271866
187.473618 57.430954 104.984016
188.038193 57.726139 103.865707
188.037628 57.725952 103.865898
189.204987 57.635006 103.113701
189.590714 58.422516 102.588753
189.867416 58.193375 104.767647
188.943787 58.459888 103.286400
190.472519 58.413097 104.279167
190.479095 58.918934 102.590736
190.479599 58.919147 102.591232
190.470993 58.060726 102.729836
188.897675 56.934387 104.731308
191.090195 57.305817 104.289291
191.771545 57.706154 104.727280
198.313721 56.894409 104.031700
208.839706 59.631786 104.934296
209.323807 59.297024 105.020004
226.534821 57.321568 104.473946
227.029083 58.456455 104.609619
227.098923 58.271267 104.398750
226.945541 58.508121 104.738335
225.435699 57.123688 104.835388
226.815094 58.353027 104.178391
225.433258 57.123215 104.834312
235.711929 56.937374 104.903000
234.805939 57.108208 104.696442
234.817307 56.950569 104.690277
235.362747 56.897102 104.565193
235.616913 57.087517 104.695503
243.560989 56.879368 104.408226
243.331467 56.837914 104.319244
251.140396 58.902287 103.860214
251.157227 58.896053 103.866791
251.139557 58.902630 103.860878
251.186630 58.718697 104.107376
250.632111 59.145088 103.034225
252.445328 56.984634 104.968185
252.460175 56.953285 104.978340
252.462097 56.945061 104.980499
251.845581 57.772434 104.729637
119.403397 57.199986 106.650238
119.393768 57.212425 106.570854
119.406853 57.204689 106.638649
119.402985 57.222336 106.630234
125.823509 57.105198 105.618477
125.803062 57.086693 105.646309
126.061028 57.386780 105.461769
152.484970 57.014637 107.236824
152.471512 58.151234 106.836540
155.346375 57.965237 105.805450
155.401077 57.929638 105.723457
155.626343 57.552280 106.127831
152.834488 57.559914 106.283127
154.410187 58.010086 106.156013
153.096802 58.228283 106.344734
152.885391 58.230793 106.449158
155.363083 57.957687 105.786842
176.669952 58.134686 107.459198
176.670609 58.134609 107.459343
176.625671 59.011600 105.756485
176.582611 58.056503 105.760521
176.524536 58.999073 105.794266
176.698990 58.493759 105.510025
176.681198 58.170017 107.469490
178.650848 58.933643 107.552116
179.090836 59.172455 107.902779
179.039917 59.150105 107.756470
177.223267 58.672783 105.706421
179.098267 59.146622 107.706108
177.625778 58.199600 107.553925
180.204620 58.777359 107.756050
181.517624 57.589539 105.527214
182.034958 57.570187 105.320152
182.092407 57.418293 105.478096
182.665710 58.904083 108.003151
182.646118 58.109623 106.413666
181.515045 57.613613 105.543320
181.542877 57.534832 105.462502
184.078705 59.175854 106.835724
183.661728 58.571011 107.535019
184.126312 59.089882 106.839478
184.078461 59.174992 106.834229
184.078278 59.174290 106.833191
187.503082 57.173214 105.179298
187.456619 57.415764 105.120567
188.614792 56.892162 106.587547
188.502167 57.535198 106.859535
188.498383 57.358444 106.876564
188.509491 57.382263 106.877838
190.622391 56.953758 105.272713
188.906876 58.009102 106.272369
190.649078 57.474346 105.672005
191.405304 57.016880 105.834129
192.812881 57.003956 105.010628
194.401505 56.966373 105.820419
193.400513 56.906437 106.082382
195.298111 56.938503 106.231232
195.127869 56.982231 106.149216
198.285416 57.356594 107.864227
198.270584 57.365589 107.795822
198.124252 57.198631 107.669197
197.892853 56.895592 106.747124
208.474625 59.430477 105.310692
208.662186 59.391277 105.584122
208.799683 58.816418 105.259827
209.289185 59.017471 105.129921
215.489487 56.974098 106.249008
214.252701 56.847057 107.123772
214.253769 56.846649 107.124893
216.503311 57.618965 106.593102
224.626740 57.912056 106.816368
224.587341 58.148712 107.145737
224.644012 57.790859 106.857323
222.400696 56.964390 107.508598
222.613007 57.189865 107.629639
223.711533 58.628788 107.662155
223.330643 57.242325 107.109184
224.314438 57.365303 106.670769
225.901749 58.009758 105.340973
233.620392 57.290291 107.175781
233.619843 57.290108 107.173805
233.621643 57.290424 107.174606
233.620117 57.289593 107.173889
233.756439 57.055588 106.158974
235.859573 58.352329 106.861542
235.970596 57.786331 106.000229
235.957428 59.159542 106.739685
235.956909 59.159203 106.738983
235.964676 59.153675 106.743202
235.955063 59.158703 106.737511
255.692764 56.755661 107.976402
259.424622 56.689468 107.690010
262.584595 59.466473 108.000809
152.585632 56.992939 109.009041
152.946487 58.256447 108.476250
153.804504 57.840561 108.759293
153.245132 57.804688 109.367470
153.247879 57.804417 109.364830
165.564835 57.100353 109.770813
167.559586 57.352512 109.809105
169.533569 57.161354 110.219971
169.576370 57.586056 109.842529
169.533524 57.162006 110.219513
169.097733 57.745209 110.456123
168.376648 57.844097 110.264687
167.782013 57.558193 109.913223
181.839401 58.279659 108.704666
182.015060 58.273556 108.086372
181.465103 58.345093 108.916664
180.504150 59.405125 108.682739
181.106781 59.140388 109.057877
181.405365 59.387257 108.765671
199.072037 56.862656 108.602394
200.044922 56.956779 108.465340
200.039032 56.938766 108.460350
200.059677 56.943241 108.450752
215.455475 58.690788 108.076057
215.451584 58.692436 108.078247
215.452179 58.692696 108.076118
215.455978 58.689770 108.075157
216.931259 57.477417 108.497475
216.841751 57.521233 108.498970
216.709106 58.241516 108.296898
221.607361 57.159332 108.856819
221.173126 57.661465 108.484619
220.840851 57.613441 110.457367
219.622086 56.932751 108.883202
220.408005 57.914810 109.908119
220.379730 57.559685 109.889297
221.365265 58.439674 110.803406
221.338898 57.848423 110.746948
222.944565 58.899120 110.348061
222.836761 58.846375 110.408516
223.359299 58.781807 109.031082
222.135666 57.559185 108.380692
222.894531 58.900677 110.385399
224.203232 59.440147 108.725021
224.193359 59.422291 108.726891
221.824539 59.045036 110.019447
232.029037 57.845581 109.515396
232.120621 58.341419 110.291527
232.117493 57.982784 109.441292
232.226120 58.309471 109.517952
232.050537 58.076778 110.369255
232.275970 57.899525 110.314583
238.111679 57.614532 108.880264
238.147903 57.592922 108.877243
238.101120 57.584229 108.897408
238.098724 57.606594 108.906883
238.093369 57.594212 108.877029
249.324936 56.794991 109.064613
249.327682 56.794125 109.065117
249.328995 56.793041 109.064804
249.326996 56.795059 109.066422
260.248413 57.676285 108.110413
260.258453 57.677681 108.115479
260.252777 57.680431 108.109001
262.026642 59.067417 108.026131
261.212128 59.632133 108.665970
261.243500 58.800995 109.021019
261.119171 58.658981 108.924591
266.170258 58.139217 110.986839
266.175293 58.143963 110.977730
266.156647 58.099701 110.960655
263.785767 59.716503 109.627243
264.096588 59.589195 109.167709
267.695740 57.470055 109.499557
267.664215 56.832085 109.487434
268.702576 57.527508 109.906677
267.683716 57.467487 109.504425
98.733757 58.548447 113.407722
98.740608 58.553001 113.406853
98.064941 59.569466 113.908417
98.733322 58.543213 113.406731
266.263397 57.470760 111.817459
266.421173 57.398632 111.897560
267.747070 57.459694 111.508621
267.041229 56.994610 112.369652
98.135742 59.457348 114.203506
97.875267 58.566360 114.034546
97.881439 59.352154 114.147461
233.045395 59.613235 117.031990
233.252457 59.394180 116.962852
233.556107 59.488186 116.366753
233.240189 59.818382 116.251373
180.168152 58.117374 118.960266
180.552765 58.217533 119.322632
179.744003 57.774933 119.919395
181.475449 56.995213 119.642174
179.828430 57.997250 119.088112
180.217697 57.865906 118.802086
233.201492 59.865738 117.282364
131.799194 61.799862 95.987259
131.785828 61.862232 96.000061
131.801987 61.820400 95.993721
131.813721 61.835442 95.973099
131.791199 61.839157 96.012604
156.797394 62.960377 97.635628
156.962143 62.933010 97.108582
157.515564 62.564640 97.590942
191.713776 59.910477 101.815536
192.514008 60.020668 101.601295
159.900955 60.534969 103.935097
160.404282 60.828419 104.294121
160.083771 61.285038 103.632507
159.878647 61.205688 103.675369
160.183517 60.451958 103.931679
160.502380 61.213123 104.007095
224.609589 60.854900 109.744904
224.609131 60.855061 109.744263
224.609741 60.855343 109.742897
223.994293 60.364941 110.220093
224.898041 60.490334 109.314651
263.293030 60.308563 108.554596
263.682983 59.742947 109.649796
262.049377 60.103046 108.166542
261.972900 60.026024 109.400276
263.228210 60.280590 109.552490
265.572571 61.483440 109.191055
265.915527 60.027985 109.645927
265.656921 62.421486 108.105553
265.656372 62.420898 108.102486
265.663086 62.418392 108.098824
265.656586 62.420433 108.105057
265.927063 60.114441 109.617470
266.040924 61.524403 108.296425
265.917480 60.025719 109.642609
265.916687 60.032463 109.641869
235.644165 62.485764 116.904236
235.863800 62.345890 116.833664
235.949615 62.104519 116.730110
234.343735 60.638119 116.699600
234.703522 61.389153 116.618523
235.674896 62.472919 116.321335
235.353073 62.383068 116.205612
234.095795 60.823200 116.827820
238.879684 64.758682 92.913498
238.759811 65.153168 93.195251
238.688065 65.380348 93.209541
238.746155 64.849724 92.898422
156.872162 63.292816 97.980499
158.038589 63.500618 97.570343
158.022507 63.313267 97.618507
157.727036 63.810009 97.749741
170.539169 65.356926 127.752960
170.501816 65.356056 127.717796
170.507416 65.342430 127.742012
170.531174 65.316353 127.748352
170.531326 65.314262 127.719360
117.436081 68.055023 97.838158
117.468872 68.039658 97.852463
117.451714 68.021271 97.817474
117.444183 68.024780 97.845284
117.463913 68.047836 97.823547
267.220520 67.442497 100.283394
267.269592 67.481010 99.399956
267.428772 67.357895 100.216042
267.586548 67.173965 99.779465
266.747162 67.279175 99.629196
266.722504 67.384216 99.675987
168.285812 71.663803 97.594666
168.074570 72.548157 97.598389
167.825272 73.450928 97.577721
