ply 
 format ascii 1.0
 comment particle cloud from Fluids_v4
 element vertex 1000
property float x
property float y
property float z
end_header
64.367134 16.756447 113.927414
64.380424 16.822037 113.727119
64.025658 16.914623 113.996071
63.941902 17.250134 113.909615
64.044090 16.536407 119.121071
64.050453 16.834059 118.718048
63.870747 16.892794 119.211243
64.397827 17.632107 119.563934
64.165329 17.515839 118.821381
65.999947 16.885107 119.110550
65.562744 16.809473 118.578712
65.884583 16.662600 119.677101
65.738800 16.634357 119.839584
65.799927 17.246820 119.751465
107.623489 19.157633 106.744804
108.067108 19.181547 107.644775
107.705505 19.150261 107.763412
109.745552 18.998278 105.447380
110.404556 19.504623 105.733147
108.755013 19.041283 105.735146
108.971474 19.190058 106.623985
109.044235 19.179995 107.699333
109.849152 19.770908 105.914307
110.373459 19.055941 107.004486
110.580536 19.517151 106.520546
110.663887 19.465630 106.160530
109.047554 19.281458 108.204613
64.951530 17.686781 113.889557
64.368462 17.755690 114.086006
66.202271 17.965658 115.146637
67.014442 18.406046 115.614952
66.401360 18.215050 115.074417
66.156921 17.948912 115.108498
67.315475 18.105501 115.430832
67.568573 18.826546 115.369820
69.070068 19.071533 115.342789
69.038719 19.059193 115.327415
69.060234 19.065983 115.337883
69.868874 19.777729 115.667191
70.940086 19.260803 115.805542
70.933662 19.272436 115.798698
70.954605 19.255264 115.784309
70.957932 19.249111 115.804558
153.463562 23.753843 108.013077
153.448257 23.759361 108.027184
153.438293 23.750868 107.983315
153.447784 23.756330 107.991653
150.955215 23.382099 108.691971
151.095673 23.378368 108.637688
151.090118 23.357616 108.671913
151.113297 23.388620 108.717804
151.080505 23.385338 108.694931
153.531708 23.796274 108.022636
69.047035 22.910475 113.659531
69.068954 22.906071 113.657799
69.078690 22.937815 113.650139
69.072571 22.918161 113.616821
132.701385 23.377142 152.793228
116.080200 25.529200 101.613960
116.305130 25.604469 101.213211
116.363068 25.761330 101.974022
116.836479 25.191069 101.570633
116.849739 25.454124 101.946602
116.832680 25.772736 101.324356
118.543419 25.462786 104.391174
118.496147 25.478777 104.399544
118.495888 25.456116 104.399261
118.521164 25.450224 104.411415
118.516869 25.463432 104.369766
166.581680 26.501116 102.950928
166.557327 26.464361 102.924263
166.577042 26.511211 102.937103
166.600937 26.511545 102.891495
166.578201 26.488056 102.946487
169.277084 26.136459 106.082245
169.184174 26.163837 106.423759
169.413757 26.253960 106.478271
169.243790 26.204224 106.131119
170.190018 26.171648 105.870941
170.944595 26.112003 107.348236
171.009766 26.113035 106.720184
171.381088 26.268291 107.868744
171.660400 26.137424 107.149780
171.094299 25.875517 108.621849
172.282181 25.794792 110.379623
172.845291 24.852751 111.121994
172.727325 25.923050 108.174667
171.076096 25.875679 109.663979
172.134766 25.900459 109.081917
172.887665 25.613905 110.075661
173.771332 25.626415 110.849380
173.848999 25.457865 109.531136
63.934841 26.873844 112.042603
64.096031 26.638096 112.469566
64.602966 26.137842 111.970741
65.105652 26.432962 112.285858
65.152946 26.621378 112.342743
69.244751 24.223997 113.464195
167.259369 25.091932 112.667839
167.263702 25.102358 112.619995
167.269257 25.065409 112.645721
167.286819 25.080029 112.660233
167.292297 25.107454 112.632599
173.679550 25.058861 111.311035
173.800964 25.454660 111.506752
70.206764 24.525265 114.184654
70.196022 24.557261 114.152023
70.186974 24.537394 114.164818
70.229622 24.539604 114.154610
132.932327 23.979744 151.098969
132.637848 23.981640 152.992004
131.930115 24.279934 152.033615
132.378723 24.332777 151.172668
132.860733 23.707365 152.967560
132.628372 24.381212 151.132019
133.028854 23.919064 151.160019
132.997498 23.604305 152.875412
115.047554 30.108692 91.842171
115.056885 30.089291 91.841476
115.048820 30.080093 91.852173
115.064514 30.014250 91.842590
115.083427 30.047167 91.831619
207.364685 28.980179 98.119606
209.639740 29.688700 98.376472
209.826920 29.576084 98.165413
206.224823 28.681269 98.984795
206.361511 28.989197 100.861610
205.551117 29.244698 100.892868
205.440109 29.015337 101.908867
205.247589 29.115702 100.799423
208.047958 29.539972 98.974632
208.442047 29.094542 101.497490
207.113602 28.999846 99.528969
207.073853 29.238686 101.292557
209.181442 28.956892 99.040031
208.318909 29.179335 101.669907
208.111069 28.808788 99.621864
210.111084 29.714617 99.648148
210.409973 29.756971 99.509087
159.596954 29.370049 104.482254
159.606552 29.371883 104.487808
159.602875 29.369143 104.484634
159.598907 29.375853 104.489204
159.615768 29.418344 104.707466
193.235336 28.037390 102.684624
193.237335 28.037252 102.649033
193.220581 28.008322 102.679375
193.207642 28.028526 102.661064
193.244553 28.007793 102.658081
198.947708 28.775206 104.436974
198.694382 28.758875 104.721069
198.965530 28.785120 104.420677
204.428177 29.202337 102.580475
205.785492 29.184391 102.721031
204.422256 28.756874 102.030251
204.090973 29.542231 103.055862
204.902267 29.844627 102.952850
205.305466 29.805641 103.171700
211.642456 29.635555 104.101273
210.506821 29.819206 104.014786
210.557373 29.766588 103.992928
214.262543 29.779043 104.397346
213.373474 29.694641 104.833786
214.542480 29.823465 104.554596
110.401520 29.262838 105.653587
110.378220 29.446842 105.226707
110.515053 29.329870 105.668518
170.894257 28.218203 107.586327
171.006042 28.696953 106.880341
170.827301 28.367064 106.762024
171.228271 28.726835 106.997612
171.211136 28.073721 107.527222
171.180145 27.882549 107.228088
188.322723 28.064713 107.284088
187.666183 27.970879 107.905075
187.972107 27.674192 107.574951
187.973053 27.673712 107.576576
187.735199 28.458055 107.521629
198.672394 28.849674 105.176346
199.715469 29.174614 105.006226
200.413803 29.031609 106.481651
200.129364 28.659842 105.580200
201.677780 29.307194 105.443489
202.799194 29.407616 105.081612
203.246567 29.749125 105.022858
202.962402 29.696535 107.585724
201.173523 29.105484 106.408661
202.027939 29.314058 106.736992
200.864075 29.063587 106.201530
203.298569 29.615789 105.060677
203.890610 29.946575 107.078667
203.610138 29.915062 106.069321
203.638550 29.621824 105.226151
207.292435 29.429245 105.675270
207.568375 29.710495 105.370476
207.297089 29.585247 105.741257
207.808090 29.883059 105.458031
207.046738 29.929605 106.518425
207.093567 29.751860 105.078300
211.170059 29.421124 106.676384
211.894180 29.473356 106.323967
211.558746 29.502628 106.295265
210.730545 29.568029 107.470825
212.105957 29.513826 105.401642
210.714935 29.616905 107.627335
213.134644 29.676708 105.472481
215.409515 29.971752 107.723343
214.945724 29.848343 106.420280
214.282913 29.747896 105.656776
212.920639 29.623648 107.383041
215.168777 29.897650 105.900574
64.024330 28.804255 110.118401
64.022858 28.819651 110.117378
65.082138 28.911703 109.802811
64.021454 28.816315 110.126228
64.473305 29.836178 109.785744
64.398712 29.331196 108.716576
65.446785 29.664656 109.164139
65.556168 29.772873 108.693886
69.422775 29.478186 110.832062
173.741409 27.757223 110.965446
173.720352 27.748766 110.960892
173.741882 27.760324 110.955399
173.726166 27.778101 110.966011
173.938522 29.365047 110.989365
188.847977 28.530155 108.084114
189.202225 29.283619 108.816345
201.306183 29.934196 109.047981
202.672989 30.009466 108.884590
207.744125 30.050266 109.652267
209.499985 30.122164 109.662209
211.750488 29.619125 108.240898
210.181091 29.908493 108.969185
209.863998 30.001842 109.380821
213.375427 29.828009 108.127411
213.959885 29.743296 108.294022
214.674988 29.826744 108.172806
215.470596 29.975851 109.115585
64.231377 27.311510 111.470093
64.852654 27.352739 112.039421
68.937683 28.116549 111.604790
68.930069 28.110180 111.648865
68.900024 29.156485 111.308357
68.911354 28.090683 111.624802
70.776291 27.134718 113.406403
70.753746 27.150808 113.398308
68.929375 28.099117 111.633728
70.776688 27.157629 113.404495
70.741104 27.196297 113.382492
70.757484 27.155800 113.382553
85.343697 27.679262 112.519821
85.340317 27.680136 112.514069
85.978081 28.185791 111.219078
85.349815 27.682899 112.514732
85.349319 27.680319 112.518791
86.715996 28.886055 111.336891
86.712303 28.855425 111.354736
86.658180 28.424021 112.244415
86.712845 28.881746 111.344498
174.353745 28.665180 111.199310
214.695160 30.240850 111.717125
216.313797 30.010883 111.326469
216.730728 29.883217 112.573273
218.372940 29.808161 111.357834
218.531525 29.551348 112.220085
217.158875 29.721878 112.385765
218.648727 29.738903 112.193748
218.583450 29.376581 112.150032
60.317154 29.402508 116.795311
60.843567 29.448532 116.559860
61.516666 29.191133 117.027946
172.356735 26.958378 116.790924
173.351318 27.482317 116.582253
220.032303 29.739391 115.975006
219.878891 29.700876 115.992142
220.013199 30.106012 117.069016
219.937027 29.756601 116.039665
219.670715 29.449791 116.300804
221.880203 30.231415 116.768066
221.546204 30.260710 116.866135
60.378990 29.383818 117.434654
61.502216 29.493694 117.626335
61.533459 29.808628 117.311646
60.515034 30.053715 117.365913
172.076111 27.109051 117.776192
172.040344 26.951786 117.577919
173.091110 27.557600 118.178482
171.969513 27.172203 117.464882
173.873291 27.633999 117.139320
173.840683 27.621101 117.255203
173.872131 27.374666 117.583336
219.671158 29.511120 118.336143
219.812088 29.693281 118.319359
219.957138 29.733982 118.407677
219.713409 29.609308 118.303299
221.411179 29.493719 118.410957
221.659286 29.911301 118.332565
223.205399 30.040052 117.289490
221.998322 29.961754 118.210732
228.605774 31.496912 88.276436
230.322891 32.022690 87.946861
230.280045 31.785892 87.885292
228.676651 31.353340 88.226707
228.525269 31.407974 88.349678
228.728668 31.413023 88.449471
231.720703 32.147232 89.144333
231.570190 32.089558 89.053185
230.831985 32.050968 88.226997
229.839844 32.316986 91.216080
227.921387 31.930378 91.739792
229.658417 32.112309 91.271721
227.774170 31.514217 91.034386
228.348923 31.681353 91.053307
230.368881 32.197353 91.306068
230.924866 32.018471 90.380348
231.580307 32.135284 90.094643
231.059235 32.210041 90.813431
225.076981 30.842434 95.021065
226.559280 31.004887 94.596260
226.940369 31.030952 95.023582
226.915680 31.039047 95.547585
225.025604 30.851244 95.142456
225.212021 30.867664 95.804993
225.009689 30.846817 95.264473
226.951355 31.044930 95.057518
226.245407 30.959740 96.075493
69.468399 30.870035 101.526855
69.288345 30.966795 101.482147
69.813362 31.293285 101.509605
69.814133 31.876223 101.694237
151.784088 31.179121 101.869926
151.906158 30.677315 101.992050
152.429092 31.166618 101.506493
152.230972 31.714703 101.907867
152.641968 30.592148 101.974617
208.685837 30.567671 99.973930
207.486618 30.778561 99.661621
208.892029 29.936188 99.435936
207.599625 29.693317 100.130798
208.411713 30.370726 99.286674
208.243225 31.725018 99.070190
208.489731 31.924067 99.119362
208.536957 31.913576 99.157982
208.549896 31.907873 99.141281
211.158340 31.147223 101.389702
211.237305 31.118790 101.372581
211.129883 31.136339 101.372696
211.342697 31.018608 101.353241
211.558090 30.848452 101.897369
67.587036 30.477518 104.825493
67.593201 30.474133 104.825600
67.136169 30.773726 104.805275
68.592667 31.797655 103.991898
70.455826 32.664261 103.454788
68.658661 30.695417 102.940308
69.788734 32.598690 103.662071
68.663773 30.696026 102.935020
69.396805 32.315735 103.919868
68.651817 30.689430 102.939377
69.791420 32.608265 103.651817
70.280167 31.531998 102.016998
97.905739 32.616669 103.512199
99.376968 31.325876 102.965393
99.388908 31.325302 102.973305
99.376991 31.321959 103.020653
99.219299 31.728592 102.686836
99.373222 31.327866 102.971207
151.630295 32.290787 104.216415
151.623093 32.371803 104.777634
151.617874 32.287376 104.317680
151.616882 32.280407 104.316498
152.430725 30.502783 102.093071
152.889954 32.554062 103.424454
153.176285 31.586723 103.581772
153.388565 32.116074 103.499374
154.381485 32.018486 104.284508
155.847763 32.343910 104.948486
155.816803 32.333889 104.915390
210.861374 30.706091 103.153603
211.445663 29.927536 103.667892
210.853928 29.926796 104.028503
215.212296 30.069527 104.831818
216.992889 31.142952 104.014832
217.137558 31.292309 103.046310
217.408539 31.453009 103.739777
216.788605 31.084513 103.980591
216.852234 31.164499 103.133934
217.371216 31.274527 103.168793
65.134293 30.357380 107.885834
65.150017 30.284525 107.533775
66.667953 31.128664 105.493034
65.854980 30.219982 106.748016
67.145683 30.479895 106.184006
65.999474 30.719086 106.781433
67.754692 31.459831 105.523193
65.738510 30.299770 106.761497
69.756882 31.021410 106.593643
69.589645 31.421827 107.229279
68.877975 31.837372 106.219162
69.987282 31.378073 105.830772
69.982483 31.359175 105.831779
70.358978 32.168709 106.341492
69.363968 31.755144 107.255608
82.432220 32.805546 107.354073
82.431023 32.797478 107.333344
82.464439 32.711002 107.335838
83.554993 31.334732 106.976746
83.561913 31.309439 106.961800
83.561714 31.325983 106.970146
83.566467 31.321682 106.984528
86.094345 30.943996 106.824112
85.678467 32.065479 106.269829
85.455017 31.306948 107.240791
85.612366 31.888584 106.193619
87.005676 32.265251 106.038353
87.006638 32.263466 106.040428
87.349907 31.647358 107.210815
86.514610 30.948580 107.495857
87.000954 32.263783 106.033371
109.594650 30.008400 105.406242
110.193222 30.481583 106.036232
110.240593 30.431961 106.140274
110.146675 30.566473 105.538284
116.005974 31.152922 107.480461
116.100937 32.398735 107.233727
116.314987 31.002222 107.447449
116.600021 31.161346 106.954308
116.651108 31.220566 106.917130
117.126274 31.617527 107.166389
154.379196 32.472534 107.263062
153.746475 32.493191 105.996193
153.747345 32.489292 105.991440
156.437668 32.119007 106.168312
158.218124 30.849749 106.073685
158.303131 30.586971 105.696709
158.344360 31.370626 106.428726
158.045486 30.849567 105.880516
158.044113 30.851400 105.880501
156.613632 32.069233 107.246483
156.028992 31.840885 105.758461
176.457047 30.348743 106.600357
176.164261 30.279661 107.169312
176.460953 30.342455 106.599495
176.462265 30.344662 106.601540
176.124207 30.426769 107.401802
178.009811 31.180090 106.816025
178.815369 30.883121 106.429634
178.814087 30.882339 106.425247
178.810043 30.884876 106.421356
178.816483 30.888515 106.428627
180.350784 32.447624 107.259254
180.351883 32.447979 107.260765
204.587616 30.251535 107.470680
215.770767 30.090479 107.461334
216.341156 30.185091 107.699768
71.514999 32.414455 110.684364
69.604652 30.610794 110.221573
69.469200 30.050800 110.571342
70.996216 30.912388 110.472580
70.090614 32.212318 109.406677
70.092712 32.233746 109.414955
69.593040 30.612896 110.234512
69.842262 32.029156 110.494720
71.652802 32.045231 110.707504
71.560959 32.252007 110.573433
87.196320 30.243622 109.763657
87.674026 31.333138 108.468964
88.023140 29.981884 110.000328
87.862762 31.109238 110.576080
88.527519 31.688700 109.809181
88.800377 31.362249 109.589958
88.565506 31.297323 110.384727
88.618454 30.335531 109.803673
87.138611 31.276344 108.498215
87.012245 31.073519 109.441948
115.133453 32.067638 109.586174
115.131981 32.068707 109.587189
114.536934 32.076458 109.991028
115.480469 31.804438 108.999855
115.031143 32.562260 110.031342
129.253906 32.163094 110.865112
129.421417 32.217197 110.477631
157.127487 32.210972 108.642479
157.233292 32.389313 108.682014
158.524841 32.167358 108.337799
158.492722 32.200649 108.400192
158.588120 31.942385 108.002701
158.537918 32.137104 108.310989
174.765594 30.710909 108.879562
174.019684 30.190285 109.749084
174.380615 29.961149 110.784431
174.046478 29.706425 109.860344
174.675720 30.679558 108.924942
174.481415 30.662769 109.073975
176.008057 30.993650 108.707733
175.840164 31.136990 110.460091
176.330887 31.540709 110.166077
176.691574 31.491968 110.053795
177.312393 31.443722 109.307297
177.610565 31.620255 109.411522
179.243256 31.301090 108.377197
178.409622 32.001568 109.401566
178.491623 32.036133 109.492477
179.989517 32.152279 108.655548
180.004105 32.004360 108.614296
179.547165 32.267590 109.196259
187.290085 31.275864 109.108856
187.392227 31.692808 108.935196
187.393921 31.692978 108.927895
188.117371 29.819260 108.771538
187.390167 31.692747 108.933876
187.392181 31.689003 108.938560
189.251205 29.861135 109.778419
189.262375 29.876554 109.768158
189.253860 29.858545 109.771935
189.153671 30.252285 109.467003
201.312363 30.217566 109.199486
201.611877 30.287582 109.475838
201.922165 30.304028 109.768494
201.353409 30.271082 109.437332
203.670746 30.182173 108.922318
205.585999 30.353634 108.215828
205.065704 30.314837 109.452682
204.534393 30.270710 108.313858
206.253967 30.245096 110.068069
205.620728 30.348467 108.320938
206.344971 30.313547 110.206215
207.738144 30.170761 109.494118
206.524017 30.289818 110.320122
207.112045 30.224699 110.075226
212.339767 30.237852 109.414894
209.576080 30.054003 109.469467
212.320450 30.222063 109.438332
212.270523 30.261269 109.447220
213.012650 30.235865 109.193359
214.722687 30.223791 110.519539
216.669128 30.532114 108.895973
217.164520 30.107050 110.840469
217.630997 30.441364 108.828812
217.330841 30.487661 108.524216
218.047470 30.325592 110.048271
215.461166 30.445183 110.923782
218.103302 30.453238 109.308533
70.414055 31.770218 111.906967
70.752151 31.255917 112.042030
71.184608 31.606653 112.544106
71.106827 31.527761 112.495461
72.204185 32.720619 113.368637
72.334038 32.891544 113.346207
72.199471 32.337189 113.292229
125.856239 31.650524 113.121727
126.460526 30.997828 113.884102
126.495239 31.100250 113.283363
125.976944 31.350391 113.831657
125.840172 31.430580 112.984665
125.891411 31.619913 113.215576
129.406464 32.136745 111.045403
175.504745 32.397141 112.157356
175.635071 32.140442 112.336647
175.708755 32.470898 112.291817
175.137070 31.513323 111.736961
175.131470 31.528316 111.743240
215.181427 30.217054 112.336044
214.660339 30.229185 111.634575
127.747963 30.929348 115.532845
127.679367 30.139456 116.019203
128.166718 30.400732 114.664986
127.642036 29.946096 115.909004
127.679024 30.143278 116.019691
128.264252 30.221392 114.752594
128.442612 30.152237 114.978912
224.411514 30.895868 116.860512
223.708969 30.482136 116.871666
223.761902 30.505724 117.050697
224.634109 30.547300 115.756065
226.353210 31.200840 115.391670
226.182297 31.166586 116.527580
224.882263 31.160200 115.601250
226.373962 31.207003 115.328926
226.543137 31.207745 115.853943
225.659454 31.363796 116.117638
222.947067 30.436172 117.864281
223.597519 35.289776 81.796555
223.635605 34.996571 81.629303
223.639114 34.839863 81.610466
223.649139 34.796745 82.011253
78.640724 33.684124 98.833328
80.057388 33.845871 97.022018
79.919510 33.601967 98.184998
77.974464 33.215649 98.525467
79.739288 33.692417 96.933205
79.917061 33.578445 98.161644
79.799423 34.026791 96.995735
79.870041 33.964142 96.978264
77.970558 33.204346 98.497833
77.977112 33.177689 98.959648
73.022751 34.291389 100.932961
73.048645 34.294655 100.938164
71.600609 33.477295 101.522499
71.577232 33.477768 101.490227
73.000443 34.267258 100.914284
73.002678 34.305298 100.947151
71.626274 33.491978 101.448975
75.299759 34.640137 100.038780
76.443810 34.032017 99.541367
76.438042 34.024162 99.575500
75.307472 34.623638 100.040047
75.306908 34.630024 100.016014
75.309921 34.632744 100.048561
77.308372 33.438614 99.151932
145.681107 34.613224 100.453445
144.602585 35.074383 101.837685
146.068268 34.536999 101.155663
146.164124 34.123463 100.774605
143.644608 34.971764 101.926460
145.490372 33.991890 100.346321
145.428680 33.696304 101.294739
145.389694 33.707062 100.623817
71.373970 34.479084 104.388100
71.356178 33.761250 102.502625
70.821449 33.827003 103.612244
73.105057 33.812546 103.777458
71.980927 33.593540 104.553963
74.251404 34.839207 103.402718
74.439415 35.257427 103.893143
72.607758 33.847034 103.301697
73.507385 34.198261 104.883949
73.643860 33.912109 103.276970
75.851242 36.000671 104.808151
74.683014 34.586788 104.672539
74.548813 34.247250 103.541000
75.154518 35.202942 104.907112
76.214905 35.184185 103.798836
76.800278 35.304382 103.902107
77.333595 35.971401 104.425720
77.331230 35.943680 104.384598
77.153732 35.490971 104.019234
80.367531 35.648647 104.838051
80.805328 35.134769 104.248718
80.991547 34.443535 104.525482
80.995415 34.453190 104.971176
81.239189 34.887787 104.564026
80.604271 34.477242 104.372337
89.060791 33.414234 105.004929
90.425095 33.822315 104.079948
90.471550 33.728283 104.105751
90.450211 33.726398 104.075096
89.632874 33.197544 104.313034
90.450127 33.736881 104.076889
96.171837 35.191578 103.796318
97.544998 33.145981 103.214722
96.162003 35.159122 103.823219
96.172775 35.217445 103.820335
96.179604 35.199032 103.790817
96.145302 35.216904 103.819710
97.539024 33.163979 103.211128
97.523567 33.115921 103.209961
97.533493 33.151913 103.219223
142.046722 34.876881 103.091560
141.843872 34.954536 103.649208
141.754150 34.864826 104.337181
141.761139 34.960484 104.959007
141.874786 34.603310 104.324303
142.829697 34.380947 102.500206
143.052460 34.410328 102.307304
143.272308 34.878971 102.010750
143.276443 35.293133 104.220596
144.390747 34.847176 104.348732
144.919968 34.740234 103.832466
144.714111 35.014767 102.199303
145.595078 35.095249 103.973289
146.158966 35.030510 104.159775
147.473587 34.800026 104.940392
154.400558 32.562958 104.223137
155.508026 32.712875 104.813515
71.013412 34.309200 105.483017
70.905388 34.097443 106.829346
71.015228 34.306377 105.472649
70.733856 33.313038 107.523827
71.466873 33.768089 107.991867
71.692772 34.770115 105.304222
72.145897 34.795311 106.449883
73.706032 33.674419 107.544868
73.151817 34.106651 106.783936
73.165787 34.087219 106.802841
72.801643 34.608017 107.304924
77.202927 35.693756 106.623734
75.809776 35.486298 106.641045
75.789413 35.588718 106.337639
75.923126 35.225292 107.533386
76.353653 35.894657 107.117813
77.204712 35.690590 106.624474
79.346245 35.412354 106.230911
79.322777 35.414032 106.229088
79.332512 35.415623 106.228622
79.499336 35.494148 106.093391
78.086693 35.519405 105.464935
81.478424 34.103806 107.671944
81.446205 34.112556 107.685646
81.274384 34.265350 107.702728
81.499725 34.075809 107.702820
88.891914 33.599812 105.646484
88.893959 33.734695 105.841240
89.583305 34.893887 106.381325
89.591248 34.901978 106.380989
89.562210 34.893726 106.376747
89.567535 34.899632 106.375549
117.711525 33.950844 107.974129
118.895958 35.253128 107.975128
119.173737 35.471371 107.165710
117.132179 33.208511 107.566658
119.441864 35.426014 106.921654
119.863579 35.338112 106.835724
135.675308 34.039577 106.874146
135.679611 34.079769 106.883118
135.656677 34.068466 106.871681
135.701675 34.055145 106.868118
135.674667 34.053593 106.898369
142.784500 35.057098 106.267952
142.741547 35.352703 106.245094
142.737991 35.347717 106.242317
142.734985 35.354816 106.243614
143.859985 35.037411 105.623817
145.091171 35.088013 105.377213
145.998535 34.502819 105.527206
145.715134 34.243706 105.051132
148.215210 34.957222 105.924789
148.645050 34.458672 106.019775
149.515503 33.973549 106.357361
149.393631 34.045746 106.292778
147.983047 35.130779 105.894218
146.837677 35.370853 105.746834
147.249191 35.493183 105.155617
150.486603 33.772923 106.622246
152.115509 33.315826 107.442871
151.359146 33.363625 106.424461
150.667221 33.446712 105.905365
150.731369 33.792118 106.495461
153.067963 32.609978 107.007668
155.038696 32.794872 106.589882
153.149567 32.761860 105.255035
156.035965 32.652821 107.788033
181.891495 33.925430 106.778679
181.909119 33.912418 106.827942
181.890778 33.926147 106.777985
181.957520 33.751717 106.997269
181.138809 33.641937 106.416428
180.549484 32.745583 107.084244
70.485214 33.054123 108.162567
70.441223 33.045414 108.147789
73.066505 33.506607 109.330330
73.705002 33.420059 108.951553
72.382812 34.124435 108.504410
72.568077 33.835102 109.929245
74.092506 33.825359 109.135010
74.461449 34.017406 108.390869
76.313156 34.535732 109.847504
75.226746 34.190235 108.824783
76.243622 35.134460 108.436653
75.979248 34.951733 109.385170
76.417870 34.259907 109.805740
76.638939 34.354496 109.904274
79.228661 33.769264 109.260139
78.169762 34.151352 109.893021
79.926537 34.859238 109.048210
79.630310 34.947170 109.359825
79.380630 34.176563 108.509956
78.295166 34.506760 109.944160
78.259506 34.018730 109.087860
79.749916 34.872337 109.361061
110.130936 35.556137 110.168510
111.921295 34.609165 110.999283
111.929802 34.622364 110.997513
111.935089 34.607677 111.001854
111.929337 34.615734 111.006393
113.513519 33.142696 110.955811
113.507454 33.142681 110.964111
113.513123 33.138615 110.977791
113.518211 33.145634 110.968307
110.714806 35.715034 108.318703
110.726952 35.709084 108.321381
110.721481 35.713352 108.311913
110.716255 35.717476 108.321228
116.517128 33.098057 108.704506
118.719925 34.162148 108.885696
118.562683 34.061638 110.855499
118.834213 34.109531 109.760246
116.533043 33.115543 108.689468
117.327202 33.259151 108.434540
118.383118 34.173466 108.331734
121.449471 35.452839 110.080826
120.440811 35.139992 109.261345
119.947449 34.368786 109.759300
120.088882 34.802353 110.483788
122.031578 34.827991 110.980438
120.494583 35.227737 109.080521
122.026245 34.832729 110.983391
124.572021 33.759644 110.994728
124.427048 33.910957 110.933754
123.314194 35.584438 108.898712
123.391083 35.690228 108.537422
123.354988 35.630989 108.810143
122.620422 35.531864 109.802170
129.933517 32.778385 110.707207
129.791061 32.890739 110.661484
135.126755 34.649971 110.038605
135.568771 33.967903 109.878952
135.243561 34.632507 110.355370
136.957870 35.284794 109.035240
136.488586 34.370701 109.737701
135.877151 34.003880 110.291145
135.257645 34.626656 110.378746
136.927582 35.628006 109.783928
152.499023 33.265568 108.254456
152.499634 33.265541 108.255524
154.515640 32.837666 108.929016
153.605301 33.049706 109.088120
152.674805 33.208088 108.560883
154.497208 32.848465 108.936470
154.497070 32.844189 108.937088
155.950165 32.625206 108.305191
179.752548 33.454433 110.983620
73.355194 33.607082 111.567604
72.596359 34.341431 111.380280
73.280823 34.495407 111.444664
73.178993 34.563744 111.228233
72.876915 33.345108 112.986565
72.628304 33.174580 113.189392
73.249359 34.526840 111.383240
109.766098 35.756512 111.278099
109.789108 35.787052 111.309540
110.072037 35.259617 111.605614
113.122833 33.944832 113.698456
112.976746 33.645729 113.519775
113.553505 33.650436 113.420197
118.757370 34.164135 112.199081
118.451820 33.940456 111.334602
118.712555 33.392746 111.318481
119.397240 33.849266 112.713707
119.515495 33.415668 112.557564
121.514252 34.602314 113.408714
120.178764 34.240459 112.637543
121.199402 33.770714 112.338966
120.073532 33.408955 111.724319
121.659164 34.171978 113.650757
122.280930 34.584179 113.743271
121.906792 34.826950 111.034119
124.681190 33.570728 111.151123
124.671211 33.572853 111.157753
124.677711 33.578312 111.156830
123.223755 34.486862 111.852669
122.927429 33.957596 113.063812
122.927368 33.958218 113.068306
122.679535 34.519039 113.606873
129.596024 32.846050 111.134529
176.448242 32.749058 111.935890
177.503860 33.834423 112.746994
177.503250 33.833057 112.744247
178.190094 33.570637 112.954514
178.461945 33.872772 111.558685
177.496979 33.832069 112.738823
178.630753 33.115284 112.608192
179.984833 33.707581 111.225052
179.940857 33.533524 111.114044
179.967499 33.359390 111.934479
180.004700 33.709049 111.902710
113.059319 33.294518 114.143745
113.475525 33.421032 114.271034
113.634750 33.399216 114.143440
186.067398 35.203358 114.534706
186.063583 35.244820 114.631905
186.187714 34.775272 114.291138
186.324081 34.452354 115.023941
186.283981 34.356380 114.846581
186.006058 34.756145 115.189507
72.332664 34.126732 117.422211
72.430626 34.486546 117.406075
72.445450 34.580006 117.237564
72.166092 34.359184 117.343643
191.381119 33.951122 125.442101
194.218658 35.335510 125.495804
192.083069 33.935913 125.431877
192.414154 34.343422 125.883720
192.412811 34.345001 125.870552
195.099854 35.396389 125.772636
195.129181 35.461246 125.129082
195.102005 35.012814 125.597420
194.897659 35.073418 125.059875
191.136902 33.846004 126.201103
191.191513 34.055786 126.388596
191.408310 34.206680 126.538155
131.146393 35.191647 130.728607
132.004425 35.335388 130.450394
147.748093 38.821407 89.791214
147.755539 38.820599 89.791710
147.730988 38.764030 89.786705
147.728241 38.849590 89.770241
147.735321 38.751709 89.805725
95.104706 38.810436 101.177551
95.069740 38.824604 101.174301
95.078674 38.791653 101.171829
95.083702 38.830139 101.147652
95.088669 38.842411 101.178551
91.947998 36.467052 104.417870
93.292091 36.701244 103.720863
93.302864 36.705772 103.767067
93.310326 36.666172 103.774353
92.579704 36.674011 103.663498
93.068947 36.373257 103.594826
91.172455 36.818130 105.830467
91.082069 36.809231 105.859131
91.057381 36.086769 105.388687
91.130005 36.797234 105.872078
91.190247 36.762188 105.861168
119.957787 35.858257 106.814072
121.429871 35.953793 107.802147
120.689514 36.178268 107.432983
121.250702 36.005669 107.815277
122.706329 36.044388 107.933372
130.322449 37.940456 107.587677
130.118469 37.386711 107.897331
130.327225 37.943741 107.586273
130.323654 37.940315 107.585587
130.322159 37.936745 107.588348
109.882713 35.938057 110.973450
110.739792 35.830215 108.547897
123.092987 35.810535 108.048859
130.207825 37.494732 109.800011
130.186676 37.462479 109.724648
130.494385 37.605656 110.263718
130.286530 37.395618 109.770317
132.039352 38.433922 110.350166
132.041687 38.541084 110.300293
131.789246 38.267891 109.449921
137.208191 36.842236 108.854111
136.779419 35.859985 108.712891
137.688065 36.745613 108.978996
137.671448 36.760086 108.982391
137.663635 36.711658 108.849442
110.845329 35.824696 111.582855
194.505630 35.672642 125.511421
130.170395 37.212112 128.595795
130.065720 36.541023 127.996506
130.923065 35.937000 128.596786
131.384354 35.991829 128.958313
129.454605 36.875202 129.054596
129.778381 37.034859 128.281525
129.593262 36.245029 128.294647
130.107193 35.985653 130.301544
129.763412 36.119621 129.857178
130.579865 35.829197 130.774384
132.187286 35.719742 130.149445
132.093307 36.119453 130.142654
131.712082 36.005150 130.917664
152.869949 39.229145 13.741755
152.531830 39.307102 13.674521
152.640335 39.083542 13.693031
100.639320 39.386101 97.203720
100.305138 40.162098 96.787491
100.439415 40.222157 96.842407
100.154572 39.457142 97.035408
100.630356 39.445454 96.665474
100.805801 39.938271 97.270836
107.744148 39.565952 99.873482
107.760353 39.550709 99.845184
107.724503 39.578194 99.850792
107.761307 39.582882 99.850105
107.746117 39.568886 99.828262
131.725739 38.793770 110.399048
131.772491 38.843273 110.249985
193.107422 40.345531 109.607773
193.151199 40.372219 109.578346
193.142365 40.410343 109.588043
193.092346 40.330326 109.607628
193.091522 40.281349 109.596039
173.406876 44.135017 88.116287
173.402237 44.599239 87.806236
173.742599 44.530022 87.327965
174.142532 44.188168 88.542267
174.460007 44.890900 87.645622
174.550430 44.424805 88.373192
174.787094 44.679604 87.717278
122.529640 44.897846 143.087677
122.494225 44.857231 143.075409
122.525726 44.909546 143.089020
122.492210 44.809906 143.077393
122.555176 44.875530 143.092102
130.547745 42.345707 160.859207
130.629623 42.298153 161.086655
130.707001 42.373016 160.903198
130.495850 42.393394 160.768127
217.889328 45.512905 98.511002
217.938339 45.480492 97.636215
217.392502 45.459846 97.892860
218.066330 45.675766 98.444275
218.166702 45.886902 98.016846
217.378799 45.588482 97.871254
241.855453 144.661514 135.264450
241.867340 144.719955 135.276123
241.572281 145.331573 135.408630
