ply 
 format ascii 1.0
 comment particle cloud from Fluids_v4
 element vertex 1000
property float x
property float y
property float z
end_header
154.262680 21.341787 122.788414
154.053421 21.187651 123.235252
154.159210 22.331289 122.923615
154.117203 22.120556 123.044617
111.345329 41.294346 101.620872
111.131203 41.373066 101.245064
111.383675 41.373718 101.548866
111.863182 41.845715 101.486282
108.852806 41.690342 102.566071
109.318726 40.977001 103.678711
108.410522 40.653793 104.773781
108.835915 42.315933 102.128479
110.846756 41.480858 104.892586
110.877815 41.230366 102.211060
108.399956 40.394379 104.768517
108.695618 40.181149 104.833748
108.481888 40.352909 104.723557
109.744026 40.782196 104.298134
108.718224 42.202602 102.319786
109.760033 41.931244 104.961380
108.364143 42.369862 103.068008
111.136246 42.463032 103.597282
111.097763 42.426739 103.581764
111.397736 41.968353 104.723656
106.687721 41.565327 107.971992
106.707680 41.493721 107.891922
107.117508 41.553062 107.394211
106.692398 41.582458 107.876389
108.301575 42.613979 107.361313
110.684731 42.573967 108.013893
112.998039 41.885204 106.699272
111.579811 41.831093 105.787476
111.240311 41.951675 106.834213
112.193756 42.264687 107.276764
112.990776 41.941196 106.721611
119.266945 42.069790 107.597939
119.326866 42.111473 107.566788
119.471115 42.154602 107.688828
107.408524 41.816254 108.314293
115.467735 41.348133 110.852173
115.956566 41.169559 110.773163
116.507095 41.895531 110.406136
119.132927 42.038822 108.118271
145.759048 42.045727 109.892372
145.001953 41.893875 109.982254
144.947693 42.065414 110.486183
144.919220 42.186626 110.605469
114.917282 41.505577 111.865005
114.890137 42.542797 112.089821
115.171738 42.113125 112.220695
116.406380 40.480885 111.606873
116.443825 41.098000 112.579163
117.328056 42.147686 112.246979
116.771866 40.699303 112.150703
116.766945 40.754471 112.247620
125.952248 45.554680 97.529144
125.937759 45.549469 97.525627
125.932373 45.522816 97.546295
125.924385 45.570953 97.557343
125.935890 45.533085 97.533295
110.105873 43.138287 100.633736
109.720154 43.127361 101.446350
109.396286 42.887428 101.730423
111.551491 42.837379 100.225922
111.293648 43.711430 100.231125
110.911179 43.808285 100.285950
111.353226 43.607967 101.185661
111.358467 43.646145 100.196373
270.069611 44.416908 101.011864
270.263977 44.119198 101.056984
270.185608 44.406204 100.895760
270.370575 44.285286 100.983810
108.444397 42.908047 104.360397
108.459076 42.912991 104.375755
108.969803 43.361595 104.552780
110.914513 42.683388 102.833885
114.689865 43.314915 104.961388
114.833878 43.313435 104.980553
118.018059 42.751907 104.347702
117.445183 42.883446 104.352943
118.279579 42.793823 104.248268
117.894630 43.464191 103.971451
119.237770 43.357796 104.061958
119.225136 44.169773 104.733612
121.102661 44.005840 103.786606
120.829414 44.048946 103.800438
120.291359 43.987240 103.858124
122.341629 43.735825 104.968048
121.649422 43.607464 103.966049
124.427383 44.129646 104.691681
125.639885 45.328842 103.797707
123.596237 44.033634 104.279823
123.180229 44.103897 104.232368
125.158989 45.089333 103.919548
123.051987 43.915668 104.294266
125.897385 45.411324 103.775253
126.265762 45.259632 104.544701
128.590363 45.488174 104.009529
128.527771 45.588718 103.809547
108.889084 42.738041 106.711929
108.592117 43.138107 106.341774
107.884598 43.153175 107.371925
109.462868 43.631435 105.233032
109.819855 43.554966 105.697212
110.317253 43.455124 106.201721
111.557060 42.901451 105.520935
113.252586 42.824089 105.516342
113.189270 42.763191 106.755630
110.818840 43.482704 107.743149
113.177177 43.471031 106.513954
113.633324 43.868057 105.633423
116.103767 43.615349 105.375916
116.550156 43.916931 107.970032
116.086098 43.462303 106.911980
114.802528 43.603741 106.584274
114.683861 44.021782 105.068596
114.953148 44.160778 106.106682
117.532761 42.914368 107.014214
117.523056 42.918919 107.036308
116.890244 43.509296 105.153206
117.809563 43.895481 105.405914
118.427834 43.452564 106.729355
119.667252 43.567585 106.150879
119.578720 43.936840 107.441696
122.497261 45.423435 106.702835
121.136589 44.355717 105.448662
122.117096 45.210728 107.072876
121.926994 44.971653 107.463814
121.999901 44.953239 106.878006
120.485809 43.600876 105.679520
120.434349 43.582657 105.580254
124.718330 44.066273 107.803787
124.686874 44.096523 107.764740
124.133636 44.592613 105.715538
125.054710 44.925636 105.045074
124.590858 44.897991 107.370201
123.334984 43.710831 107.780540
123.544151 45.403706 106.429756
123.470871 45.273945 105.895210
124.774757 44.596214 107.814186
127.890205 45.620247 105.208672
130.740753 45.333645 106.423592
130.925522 44.857529 107.181366
132.948227 44.870003 107.588425
132.511032 45.063522 106.317360
132.536926 44.658760 107.151329
132.589722 45.398205 105.967918
146.516785 44.257774 107.502632
147.245224 44.859119 107.664413
106.460312 44.288361 110.685951
107.270226 44.215553 109.106346
107.254341 44.238518 109.134705
107.312584 44.198906 109.048599
107.521103 44.197559 110.861633
106.725983 43.241154 110.587006
106.737778 43.213493 110.470833
106.712776 43.288624 110.502876
107.120308 43.287914 108.055412
109.621124 44.030342 111.002846
110.301613 43.489838 108.338097
109.927330 43.693890 110.573311
110.582336 42.978794 108.350243
110.373863 42.961327 108.401169
109.226639 44.298706 109.972366
109.471642 44.168568 109.816414
109.681923 44.031036 110.975807
115.947762 42.803051 109.695137
116.051285 42.674610 108.121109
115.642548 43.137798 108.654938
116.528755 43.703228 109.154449
115.790611 43.567871 108.835281
114.055847 43.407734 110.807259
114.053368 43.391808 110.797295
114.306961 43.311447 110.670105
117.512787 42.642712 108.951851
118.663689 42.745079 109.420242
118.767937 44.400078 108.703499
118.066147 44.119442 108.803841
119.311516 44.421654 108.938560
118.765839 43.587700 109.841866
122.576752 44.361210 109.246758
122.654434 44.174953 109.179108
121.902649 44.348614 108.608276
119.986404 43.870144 108.799339
119.943512 43.834827 108.894440
122.750717 44.332684 109.327812
124.113701 44.632740 108.956322
123.876602 43.950848 109.145546
132.143982 45.565918 108.560097
132.068604 44.864567 108.158775
146.358841 43.442165 108.640808
144.654968 42.718788 110.318161
146.221451 43.023067 109.634521
144.595520 45.396973 108.190338
144.675537 45.024567 108.105576
144.879120 45.053482 108.310249
144.699158 45.316700 108.259087
145.177536 43.385727 109.686646
146.111008 43.298828 109.782188
147.248169 44.625988 108.144341
147.273727 44.608814 108.033295
147.217804 44.064930 108.383942
105.152367 45.143284 113.508156
106.077797 44.507980 112.272583
105.151405 45.086578 113.476311
105.163261 45.196617 113.498764
105.767960 44.433582 112.652267
105.128975 45.173241 113.506111
106.024765 44.530552 112.244347
109.648170 44.035091 111.052048
114.081078 43.559498 111.097252
114.142685 42.960949 111.883163
117.677284 42.949059 111.362366
117.954414 42.734566 111.296242
117.955101 42.836174 111.244263
117.461426 42.890129 111.524025
218.646332 44.891628 125.871384
219.447144 45.393696 124.811104
219.864166 45.213787 124.885727
219.502991 44.571705 124.956558
219.547302 45.261635 124.763901
219.259277 44.988338 126.677269
219.482315 45.334602 126.726273
219.990463 45.330700 126.480385
128.211060 45.728207 84.042351
128.097046 45.768604 84.908119
128.454407 45.371674 84.366203
153.733414 48.175690 98.286743
153.303192 48.375145 98.082855
153.617508 47.814758 98.009666
116.967369 47.863503 99.318520
117.012878 47.863266 99.320251
116.968697 47.833546 99.319954
117.025070 47.865341 99.353775
116.945053 47.849056 99.345276
146.522659 46.657951 101.716812
147.019745 47.358807 101.448799
149.255722 48.094261 100.549652
147.251755 47.479687 101.399048
148.197037 47.922661 101.052757
146.748505 46.304905 101.977859
150.730484 46.768253 101.031998
151.509674 47.293648 99.588318
152.489456 47.194511 100.014465
151.146317 47.098644 100.024307
151.925598 47.490387 100.379745
151.099045 47.930458 99.472778
150.231918 47.906624 101.465614
152.231735 48.009556 99.432838
167.386826 46.738842 101.327332
167.390778 46.686234 101.309006
167.380615 46.665394 101.365555
167.367599 46.705952 101.338409
127.261063 46.350739 104.268341
128.502563 46.644199 104.188942
126.495872 45.875317 103.878563
128.534622 45.885544 103.640419
131.328186 46.910080 103.825485
131.078979 46.909481 104.216179
129.380630 46.316147 104.265396
130.880875 46.470322 103.803360
130.903671 45.955276 104.572350
132.760635 46.417538 104.415291
132.569931 46.344856 104.072464
131.955795 46.053371 103.724709
136.395538 48.538876 103.760071
136.625626 48.398754 103.861824
136.582062 48.460308 103.836174
136.515549 48.123363 103.827705
136.447281 48.528667 103.769402
143.994507 48.077637 103.785431
144.910004 46.983501 104.047546
145.386063 47.343895 103.057625
146.247223 47.431446 104.621208
146.184540 46.353573 103.045494
146.218063 46.351242 103.073463
143.974686 48.113747 103.795578
143.977371 48.106182 103.794785
143.977554 48.094872 103.792511
146.777115 47.447674 103.455383
148.756577 47.406246 103.377953
147.456131 47.463470 104.530968
149.099991 47.864567 102.334839
148.098587 46.822575 102.336494
148.594070 47.757130 104.357338
149.234909 47.979698 101.990959
150.591553 47.612629 103.637566
152.322632 46.868206 103.344948
152.458267 46.717106 103.592850
152.143555 46.159794 102.631760
150.295944 47.316296 102.737045
150.667542 47.567623 103.545967
151.258545 45.757854 103.180702
151.194107 45.746212 103.497780
152.430679 45.722614 103.466759
152.396515 45.713066 103.710716
165.799881 48.339329 103.899338
167.215332 48.007835 102.993340
168.571106 48.454288 103.870277
168.266098 47.891399 102.695656
167.808273 46.798580 102.328918
168.270447 47.889160 102.671989
128.207672 46.873657 106.389381
128.222504 46.869522 106.433693
128.176575 46.853912 106.423462
128.233307 46.859161 106.434898
130.266098 45.819241 106.884583
130.261490 45.806988 106.886292
128.989014 45.935871 106.414261
131.966110 46.193413 106.159012
132.975708 46.324200 105.210396
134.138397 46.660530 105.701401
134.327927 46.996559 107.024223
136.155624 46.338867 107.392860
134.865799 47.609055 105.404305
134.867432 47.587460 105.418098
135.229980 47.891415 105.139046
137.289429 46.556416 106.773933
136.588013 46.876907 107.225273
135.212616 46.860554 105.377106
136.992447 47.299267 106.405365
136.994247 47.293354 106.403702
135.676682 46.076660 106.405602
134.830704 46.152630 107.902847
134.821732 46.162739 107.906075
139.276520 46.623756 106.021873
139.334320 46.606876 106.016563
139.297165 46.625320 105.978737
138.100540 46.796520 105.968727
139.352814 46.607487 106.019333
141.897903 47.131741 107.018303
142.241165 47.869202 106.905128
140.990082 46.945160 105.258148
141.674850 47.160416 105.100258
141.294128 46.491089 105.487015
141.736191 47.430923 106.983925
142.752014 48.108616 105.837387
141.656937 47.295879 106.972908
141.906067 46.954739 105.079453
143.377213 46.916603 105.314865
143.645844 47.439968 106.416718
145.384384 46.556038 106.899384
144.279495 46.326996 107.327507
145.236664 45.558426 106.651337
146.380066 46.172169 105.810005
144.416138 46.325630 106.442345
143.818985 47.643112 105.734528
145.990234 47.228020 105.417435
146.830536 45.967953 106.776108
149.393646 47.251812 105.397499
149.578598 47.280548 105.285881
149.587814 47.293663 105.277878
147.159866 47.151077 106.189117
147.373703 47.407425 105.899620
147.556168 46.772087 106.014488
149.797363 47.345772 104.994705
165.978394 48.373062 107.279961
166.101105 48.408085 107.221977
169.422974 48.072208 105.506065
170.113220 48.226578 107.004066
168.739716 47.994343 105.890785
170.624985 48.251732 106.100540
168.046875 48.289783 105.812103
170.100327 48.352158 107.032951
212.182098 46.733055 107.324936
212.595139 46.842358 107.877495
212.746078 47.260372 106.845589
212.999557 47.277454 107.162766
131.193893 45.916901 108.070511
131.832962 46.294514 108.126671
133.052811 46.424908 108.312492
133.278687 46.552261 108.119057
134.381058 46.152279 108.027443
163.503677 47.758160 110.453003
162.603256 47.843536 110.356232
162.717361 48.033649 110.668167
162.519623 48.034569 110.466530
164.166702 48.078899 109.295013
182.336853 48.094788 110.793205
182.330383 48.039711 110.622231
219.371185 45.769787 126.412651
166.151901 50.539948 99.378326
166.061432 50.579533 99.341797
166.152283 50.522297 99.339928
166.132782 50.530521 99.347397
166.126801 50.560280 99.355583
164.476486 49.044022 104.930550
164.434860 49.904289 104.718163
165.503479 48.895947 103.622765
164.922272 48.569870 104.415764
165.508347 48.920807 103.615433
167.447296 48.586792 103.897247
165.930405 49.439537 104.561920
168.580902 48.470734 103.891830
169.612198 51.493267 103.763870
169.777359 51.546078 103.765747
173.352798 49.421490 104.805222
173.455917 49.372902 104.808037
175.573715 49.854019 104.838020
174.090164 49.068562 104.696129
176.872955 49.805611 104.715714
177.131149 50.182858 104.855751
177.170700 50.201538 104.905418
177.085312 50.151913 104.811661
160.066040 50.581291 106.209824
160.533920 50.690872 105.787766
160.823502 50.705715 105.674500
160.590591 50.863731 107.784180
160.514816 49.969872 105.676315
160.730606 49.388348 106.539742
160.196381 49.474670 106.586128
160.197769 49.499222 107.888710
163.119522 50.835957 105.278770
163.155029 50.772343 105.198639
163.359818 50.467609 105.747154
162.079300 50.626850 105.614067
162.949738 50.855061 105.417847
164.500946 49.612171 105.653633
166.159790 48.542446 107.246666
166.953278 48.821125 105.234795
165.180939 48.936680 107.061981
165.190613 48.966904 106.953415
166.743408 48.693523 106.347397
169.941025 49.201252 106.416451
169.782471 48.955563 106.878380
168.170456 48.634743 105.401894
172.133896 49.978336 106.480240
172.112747 49.956520 106.430290
172.386749 49.135693 106.212921
172.961899 49.699734 105.114799
172.680786 50.273853 107.208420
171.456985 48.812939 106.369003
174.709076 50.219196 106.323593
174.458694 50.124615 107.147377
175.753265 50.384300 106.942329
174.065796 49.958870 107.165771
176.187973 50.102913 106.650040
176.436279 51.109772 107.787430
174.947769 49.145706 105.082825
174.901886 49.121181 105.109116
177.176178 51.039379 107.630211
179.421829 49.975456 107.192963
178.982727 50.134346 107.012230
179.054077 50.123184 107.008171
177.570999 49.949303 105.954788
178.155029 50.617672 107.041298
180.202927 50.102779 107.572441
182.978058 50.433434 107.044373
184.115616 50.904884 107.077911
183.046326 50.688175 107.073883
182.978104 50.777306 107.056526
183.667984 50.210369 107.016396
183.769714 50.345749 107.294044
211.260330 51.321186 107.217857
217.470673 50.652676 107.600281
216.910873 50.962685 107.032516
218.599274 50.037167 107.324707
219.712540 49.419567 107.707802
219.670990 49.399639 107.771828
218.847168 50.493732 107.933868
219.670074 49.408382 107.737946
219.692581 49.449738 107.773582
161.571594 50.543171 108.072601
160.883026 50.476444 108.757629
160.937363 50.492531 108.746933
160.276001 49.610443 108.271683
162.080811 49.323696 108.218765
163.514648 49.350315 109.818954
162.476624 49.059093 108.439522
161.896011 49.095474 109.267990
163.150528 48.556656 108.383698
163.490707 48.864414 110.523468
164.278336 48.615513 108.812210
164.258392 48.587986 108.757416
173.000427 49.620419 109.509560
172.584946 49.807266 108.564613
173.142090 50.597565 109.773109
172.583740 49.796913 108.533005
173.040115 49.640018 109.566162
174.006485 51.083767 109.319099
174.604599 50.496258 109.471474
174.060272 50.949009 108.175499
175.493835 50.459892 108.338608
174.102982 50.349373 109.833412
178.001587 51.363991 109.574593
177.984283 50.475346 108.187523
178.004761 51.375950 109.571648
179.937897 50.090549 109.266983
181.017593 49.670620 109.908745
179.958054 49.483940 108.985481
182.449921 49.112652 109.559509
179.902817 50.087234 109.294571
180.886887 50.119720 108.445335
181.067871 49.908268 108.556602
182.491928 48.999798 109.555740
182.210052 48.504742 110.970436
181.454056 48.641850 110.525642
182.856369 48.547825 109.966057
191.432892 51.395557 118.838387
242.246887 53.021641 96.940475
242.285553 52.642593 97.165421
242.068024 52.969532 96.233307
242.408432 52.877205 96.828316
199.719849 54.373871 101.810143
202.840057 52.343834 100.289757
202.445908 52.495865 99.887749
202.870071 52.410831 100.277130
202.244720 53.041603 100.523033
202.229691 53.057110 100.527222
202.332062 52.174942 100.400200
281.702911 53.323559 100.693840
281.688263 52.507854 100.449768
282.045258 52.195358 100.876572
282.853302 52.071995 100.109108
282.214630 53.725132 100.530220
283.234558 52.403740 100.189339
282.265991 53.793976 100.602013
283.118713 52.151070 100.362030
283.119476 53.460651 100.517296
169.496002 52.189533 103.498367
169.773727 52.304436 103.419800
170.212433 52.222527 103.841614
170.066101 51.780106 104.130997
185.430023 52.579788 104.880829
190.378036 52.508217 104.978134
196.054565 53.169785 103.915489
196.915756 53.867252 103.432884
197.281799 52.971962 103.256874
197.537506 53.561344 102.754944
197.002716 52.493477 104.907867
195.986893 53.149185 104.007301
198.561371 53.916920 104.490585
198.538086 54.325142 102.679184
199.929688 53.477566 104.919983
198.498596 54.323082 102.676064
198.254410 53.395405 102.991203
197.950272 53.761372 104.953697
199.196976 52.951492 104.495590
205.182159 51.951321 103.759209
204.588196 52.675911 103.433929
204.429886 52.326153 104.707932
206.376312 52.511765 102.613182
206.349594 52.534409 102.626350
204.711700 52.739166 103.222504
206.419952 53.340431 103.713120
206.260361 52.861130 102.617737
204.526779 52.630589 103.554733
209.056137 51.671421 104.595444
209.019699 51.658661 104.608650
209.038040 51.666367 104.583878
207.528183 52.292084 103.587967
207.153320 53.103741 104.826271
207.555222 52.372532 103.567101
209.160904 52.381649 104.512840
220.875504 54.079098 102.936676
220.888504 54.307888 103.416100
220.840988 54.127262 103.798904
221.365997 53.313530 102.905022
221.570694 53.459312 103.998016
221.769363 53.838093 102.870018
221.873276 53.482059 103.243027
229.834885 53.530533 104.240990
229.790085 53.493069 104.272095
229.424942 53.701828 104.891495
229.863007 53.566975 104.174469
230.926239 53.290283 104.353622
232.270844 54.204243 104.146729
231.918381 54.006592 104.027084
232.152939 54.082500 104.139336
232.153015 54.072918 104.149902
185.203156 53.107533 105.151619
185.367950 53.172485 105.086533
185.269424 52.339390 106.865929
185.369141 52.414154 106.800240
185.271790 52.341404 106.865166
185.314072 52.217800 105.095291
185.889252 52.782051 105.075066
187.432587 53.553017 107.284454
187.564102 53.572735 107.171768
187.520401 53.589104 107.437576
186.317719 52.474464 106.982933
187.257874 53.363430 107.119667
188.714294 53.281231 107.273048
191.086060 53.614719 107.683525
189.779251 52.571686 105.230316
189.783661 52.506802 105.186409
190.942505 52.869324 106.010071
189.857635 52.421219 105.064766
190.477539 52.319126 105.165436
190.425919 52.888943 107.693474
192.035263 53.217003 107.212097
192.470947 53.758728 106.529785
192.462067 53.854439 106.572487
192.429764 53.848183 106.465904
192.469589 53.808098 106.478966
195.592270 52.968502 105.268379
195.572189 52.991947 105.205620
196.696136 53.262859 106.990761
196.803223 52.576084 106.717033
195.611008 52.795406 105.336395
196.684341 53.087456 107.020889
196.704956 53.132484 107.017166
197.072403 53.708107 106.423073
198.823288 53.235012 105.916641
199.620193 52.815376 106.058189
198.780029 52.622288 105.452026
200.599533 52.717049 106.220871
203.352982 53.125366 106.109795
201.023087 52.952152 105.160095
200.819260 52.496151 105.258919
202.581268 53.099621 105.777328
201.937744 52.902420 106.183075
201.591660 52.907639 106.252922
203.443481 53.126171 106.174728
205.004929 52.623814 105.393417
206.369690 53.826210 107.395508
204.629532 52.813488 105.905922
204.289108 52.862583 106.102264
206.440247 53.974510 107.472694
206.088272 53.387589 106.379250
206.460678 53.970596 107.566818
208.559479 52.851463 105.790314
207.008484 53.106297 106.212265
207.267105 53.030254 105.024178
207.972672 53.306671 106.362595
209.448029 52.112701 105.878624
209.522629 52.895779 107.587738
210.610809 51.678967 106.328049
211.969208 51.783024 106.854385
211.947937 51.823578 106.873024
211.928802 51.792809 106.865265
211.224579 51.745781 106.213799
209.775955 52.490532 107.311111
216.670135 51.449997 107.722115
216.581238 51.541969 107.482445
217.038559 52.832031 106.442459
217.067459 52.819603 106.216995
218.325638 54.175156 105.189064
217.158157 53.696720 105.686852
218.636490 53.501385 105.322716
218.148270 51.673996 107.205727
216.732117 51.753342 107.708824
217.177902 53.730217 105.787361
218.110367 54.269424 105.124420
219.922852 51.455967 107.216942
219.119949 52.631077 106.342911
218.811768 53.742233 105.438980
220.158234 53.219414 106.591339
220.386734 52.259647 106.952675
220.388321 52.251698 106.960228
220.391525 52.272774 106.966660
221.527008 54.258167 105.887787
221.541824 54.108280 105.780006
221.485107 53.890697 106.543724
227.207245 54.007179 107.669441
228.563782 54.226345 106.466003
229.250259 53.913818 105.371216
229.212204 54.152863 106.647003
254.426727 53.613422 107.538803
253.267685 53.544094 107.862106
253.024872 54.175861 107.588707
253.377487 53.469032 107.885284
254.942474 54.247826 107.876007
176.019714 51.503799 109.229935
176.151779 51.652164 109.294693
177.968475 51.859688 109.138298
177.460464 51.969761 109.792366
176.739639 52.010345 109.614372
190.252945 52.932751 108.441406
189.855133 53.002216 108.637444
189.007080 53.977631 108.349785
189.521408 53.793999 108.710953
189.788132 54.020626 108.454269
208.303741 53.818619 108.238808
208.255783 53.855103 108.227867
208.299606 53.815487 108.236526
209.600876 52.838886 108.217567
207.200027 53.602772 108.261810
210.684464 52.535275 108.822937
211.524109 53.397663 109.060448
211.541733 53.565193 108.818092
211.577621 53.483337 108.912781
210.604614 53.631855 108.841309
211.872284 52.881428 108.442146
225.853226 54.179291 108.423317
226.032654 54.127491 108.435707
253.877350 54.009182 108.426964
189.230743 53.336319 116.469147
189.169861 53.281216 116.492256
189.835754 53.591709 116.919701
189.261490 53.234344 116.453918
189.853149 51.937546 117.047241
190.004059 51.592716 118.811882
190.514099 51.616325 119.152863
191.576752 52.082928 118.138489
189.310150 52.026550 118.006485
190.745575 52.401760 117.239594
189.813843 52.330215 118.695297
188.962036 53.090893 117.488319
191.665482 51.729130 118.577530
191.689102 51.691677 118.488937
180.229401 53.040001 123.884300
180.235809 53.015961 123.925148
180.248306 53.002411 123.909386
180.217209 53.028503 123.846451
180.204514 53.073818 123.894402
199.653046 55.045715 101.836021
200.307297 55.184601 101.742363
200.767746 54.793510 101.308022
200.762070 54.802189 101.325768
200.758438 54.767422 101.337448
217.003769 55.728233 104.004700
216.305054 55.443569 104.186714
216.392212 56.287586 103.848907
216.903549 56.049919 103.892044
216.106110 56.087765 104.225777
216.219666 56.075745 104.425499
233.394058 55.327667 104.352493
233.391190 55.335167 104.347504
234.599854 55.479607 104.096657
233.956757 56.117855 104.923576
235.065567 56.571758 104.361275
235.117645 56.526909 104.268227
235.188034 56.385525 104.105988
234.902420 56.456326 103.793610
243.873199 56.096146 104.145271
243.475327 56.084488 103.744896
243.756348 56.282169 103.908485
242.926727 56.290874 103.897003
242.919907 56.138664 103.885971
246.435425 55.583656 102.798317
246.437164 55.547630 102.791847
246.426849 55.596153 102.770561
246.440704 55.596668 102.791870
246.429535 55.566711 102.770935
251.249207 56.508095 102.988831
251.025787 56.109829 103.113007
250.232666 56.643871 103.322830
250.144684 56.793541 103.669495
251.163025 55.754879 103.975639
254.255127 56.099350 104.746864
253.947083 55.455662 104.543671
253.935196 56.453098 104.848328
251.939667 56.824360 104.700974
252.176407 55.924999 104.628853
253.545441 56.068424 104.306831
251.958252 56.800205 104.707336
262.072693 55.088486 103.837090
262.413879 54.828621 104.735046
262.772583 54.761509 103.686615
262.535339 55.333004 103.478584
263.057983 55.482010 103.492630
264.112091 55.284107 104.047058
264.762817 55.507866 104.343864
265.458557 55.891216 104.837715
265.579315 54.879623 104.358047
266.518860 55.385281 103.955482
267.819519 54.993694 104.569778
267.758362 54.895580 104.488945
267.744507 55.043877 104.396767
266.803650 54.379169 104.558296
224.743530 54.499714 105.551971
224.726624 54.496475 105.527550
222.270660 55.125561 106.737068
223.442963 56.536461 107.882042
224.404236 55.436852 106.180481
223.339844 54.981602 105.690224
222.272110 55.125454 106.725952
223.434021 56.551895 107.847557
223.435791 56.557522 107.865631
223.434082 56.560772 107.846130
222.393112 54.748737 105.934441
226.027618 54.397221 107.470871
224.761276 54.503185 105.560684
224.750092 54.501110 105.559341
228.079010 54.404690 106.915710
228.075256 54.407619 106.919952
230.430450 54.919357 107.023262
230.516022 55.004299 107.070976
232.611267 56.017124 106.680656
231.697784 56.395767 107.207428
231.173843 55.130836 106.709297
232.639359 55.823795 106.415962
232.169128 55.219345 106.099915
232.637787 55.801861 106.377007
241.747421 56.345150 106.352356
241.742294 56.348034 106.349098
241.747665 56.342026 106.353325
241.941345 56.155182 105.248016
241.745926 56.343655 106.351219
244.203201 56.780807 105.296753
242.859665 55.789238 105.557510
244.134613 57.231071 106.230133
254.195206 55.916599 105.910721
253.366989 55.324493 105.896553
254.158447 54.709602 106.139534
253.290283 54.612816 107.842323
254.244308 54.890594 105.919296
255.293762 55.063499 107.422333
261.310577 57.053894 106.914650
261.307251 57.045696 106.909004
262.052155 55.787598 105.017082
262.053650 55.854839 105.083061
262.565643 56.396225 105.925392
261.295685 57.038967 106.900482
265.430786 55.456470 105.174149
263.801208 55.965721 105.232925
267.098633 56.513554 105.639725
267.437469 56.400791 106.069046
267.443359 56.392536 106.067162
267.036682 54.795597 105.570641
267.404907 56.818562 106.342293
224.683731 55.627518 108.015816
224.723053 55.313900 108.186035
226.661118 54.424671 108.629044
227.554352 54.645576 108.592308
224.930603 55.214310 108.132980
229.548721 54.871105 108.525352
229.109283 55.396816 108.161514
228.977066 55.181530 110.151657
228.443481 55.144474 109.595398
230.259109 55.367062 108.040680
229.460815 55.401882 110.399529
229.521820 55.910667 110.466850
230.010193 56.558659 109.706520
228.472687 55.514751 109.608093
232.370132 56.751244 108.371063
232.557236 57.059464 108.431885
231.535980 56.360641 108.801338
231.132675 56.329060 110.039467
231.127686 56.324532 110.038315
231.153961 56.339882 110.027603
240.180847 56.440929 109.243256
240.089188 56.205265 108.440155
240.346268 56.812824 108.444557
240.217606 56.440746 108.232353
240.222900 56.679333 109.200142
240.339294 56.311760 109.201256
245.733047 55.907242 108.715584
245.731567 55.892227 108.759216
245.757309 55.901024 108.708908
245.742905 55.902229 108.706779
245.785187 55.879951 108.704742
255.640671 55.926212 108.029121
256.659332 57.173115 109.256126
255.626053 55.889980 108.021240
255.649933 55.925587 108.013031
256.670624 57.167061 109.256790
256.664673 57.173965 109.253983
256.666504 57.139462 109.275002
256.775391 56.543308 108.410942
263.338928 57.106884 108.693130
240.413086 56.218552 114.001617
274.705841 56.965733 112.725288
274.701111 56.967525 112.710258
274.701324 56.970726 112.718147
274.759186 56.937164 112.680382
277.159821 56.715706 112.111931
276.117371 57.153534 113.079712
276.907928 56.574306 112.385681
276.500885 56.463638 112.623299
240.750275 55.857986 114.097565
240.383957 56.246834 115.014442
240.423447 55.827106 114.717422
240.253235 56.016003 114.772804
241.743210 56.891060 114.428177
241.352570 57.177055 114.595795
258.929535 58.133694 98.669548
259.006256 58.554356 98.842308
258.920807 58.148750 98.661209
258.920654 58.147659 98.659142
258.901489 58.170235 98.685776
283.714966 59.240055 98.501274
283.796783 59.133987 98.282860
283.790009 59.147686 98.412247
283.708588 59.219822 98.204697
284.011322 59.986717 97.423340
285.330688 59.841209 98.302078
257.436218 59.137615 101.621964
257.650940 59.616287 101.891396
257.511505 58.853588 101.609787
259.006561 59.465767 101.653305
259.547058 58.630600 100.501427
258.294586 58.513107 101.075447
259.762238 58.551407 100.890549
259.927124 58.835743 101.652687
260.388611 58.949314 101.459183
261.786194 57.723183 101.767639
261.788055 57.723236 101.740402
261.788025 57.714832 101.758461
261.753571 57.705345 101.765709
261.373566 58.547791 101.918213
250.652618 57.478973 103.949158
250.941788 57.530067 104.055862
257.727264 59.404022 103.241325
257.379333 59.007557 102.066818
258.378693 59.291035 104.715836
258.727234 59.517937 104.142792
258.207825 59.583698 104.103233
258.132538 59.483101 104.195091
244.272766 58.035275 106.203156
244.360229 58.029533 106.176430
244.312439 58.022137 106.212746
244.271774 58.011047 106.180275
260.327026 57.478306 105.529045
259.843994 58.198658 105.091873
259.842194 58.208218 105.088722
258.979797 58.743107 105.113731
260.231171 57.815029 105.334976
261.421722 57.693527 105.803062
261.830231 57.481682 107.899574
263.467896 58.087543 106.632454
263.512115 57.601974 106.138123
264.654114 57.411530 107.891411
264.208679 57.309380 106.162750
264.203766 57.313087 106.161659
264.712952 58.251114 106.794533
266.263489 58.056198 107.249298
266.736938 58.142761 107.668282
266.787933 57.271805 107.221085
267.845154 58.498871 107.852051
266.986969 58.377304 107.405396
270.187286 59.451515 107.663139
270.708832 59.762375 107.601074
232.373505 57.719643 109.959793
233.284607 57.886868 109.142494
233.059799 58.210110 109.519302
233.062393 58.211922 109.511665
233.057953 58.210056 109.519699
263.328949 58.580078 108.152412
263.047638 57.458729 109.327332
262.436493 57.892185 109.301079
262.223938 57.970325 109.088814
262.280060 58.034153 109.114403
264.521393 57.920326 108.292046
264.362305 58.228321 108.271217
268.359100 58.872490 108.029945
269.464386 59.347858 109.024246
268.400116 58.899944 108.047729
269.338043 59.249592 108.923637
272.018555 59.858974 108.553970
271.793243 59.963718 109.089424
271.675171 59.987968 109.167313
274.204437 59.342415 109.894814
274.438416 58.738735 110.056610
274.572327 58.440956 111.019531
274.278625 59.114635 110.180214
274.580994 58.428360 111.028847
275.903137 58.062038 108.439796
276.035156 58.599426 110.457024
276.944916 58.845249 108.867973
275.927948 58.750996 108.419327
277.091980 57.545750 109.223442
277.246582 57.720936 110.223038
276.595428 57.945282 108.203621
275.867706 58.734871 108.445282
277.365570 58.038094 108.957489
242.745224 58.492817 113.895988
275.527771 58.259159 111.559540
277.382477 57.330666 112.022766
277.381989 57.550964 111.120934
277.150452 57.947922 111.078453
242.080338 57.627457 114.369606
243.314621 58.408585 114.575745
243.106140 58.576015 114.689476
243.159775 58.562973 114.078552
243.386780 58.216812 114.495178
284.417145 61.570843 95.770103
284.671997 61.583729 95.575394
285.508545 61.679874 95.935089
284.238403 60.944077 96.160515
284.543488 60.720924 95.983086
285.625153 61.623001 96.284782
285.326660 61.378532 97.831589
285.542694 61.569458 96.891708
284.464844 60.911629 98.999825
285.346497 60.551556 99.101669
285.175842 60.989063 99.029411
285.233093 60.926033 99.043671
271.362732 60.648727 108.011726
270.121948 60.519226 107.778687
273.838257 61.806458 107.133316
273.324615 62.743973 106.799911
273.314941 62.746338 106.808708
273.315369 62.747643 106.813538
273.360046 62.732449 106.778412
273.379974 61.922455 108.016380
269.247864 60.291428 108.448570
270.020355 60.421761 109.210487
271.248199 60.634392 109.175468
273.990601 60.427135 108.679001
274.003998 60.455643 108.663925
273.981812 60.428596 108.675011
273.756073 61.210686 108.357925
275.752716 64.103615 100.071449
276.434723 64.182007 100.658272
276.591034 63.998798 100.221657
276.225647 64.266846 100.725639
275.728180 64.208260 100.118065
276.275146 64.305267 99.841713
