ply 
 format ascii 1.0
 comment particle cloud from Fluids_v4
 element vertex 1000
property float x
property float y
property float z
end_header
116.309685 15.585491 100.657219
116.437294 15.504273 100.696922
116.168556 15.560744 100.711166
115.521072 15.261118 101.080086
115.851677 15.346422 101.163567
119.887848 16.096745 99.115875
119.603241 16.358797 99.165756
119.702995 16.342743 99.080627
120.015945 16.272665 99.077232
119.684708 16.097618 98.948395
112.958908 16.044056 103.975716
112.526489 15.835213 103.770416
114.037498 17.305094 102.482330
111.581566 17.133562 104.935257
111.493713 17.192259 103.136559
113.840645 15.823245 102.822052
113.582336 15.887701 103.255707
111.261047 17.244230 104.253273
112.093834 17.213581 104.445580
113.104149 17.071659 104.697151
112.034767 16.186949 103.007858
113.907768 15.882228 102.935013
113.501343 16.034346 103.760986
112.718712 15.603620 102.574608
113.383072 16.252195 104.648582
113.144432 15.101435 103.445732
113.009918 15.276008 102.832619
113.212509 15.208964 102.819901
114.421173 15.973311 102.496246
115.006775 16.495443 104.689064
114.059982 15.593805 104.625053
114.247269 16.155531 103.979156
115.332634 15.878406 104.448357
122.387085 16.285757 104.608307
122.499207 17.143539 104.531563
123.145187 17.714792 104.135292
123.606445 17.110128 104.472023
123.170456 17.647011 104.109474
126.459465 16.680046 104.169731
128.389297 16.907600 104.120934
126.397278 18.277496 104.031281
126.704277 16.862030 104.161522
127.433441 17.715790 104.414803
131.069275 17.456469 103.862488
131.159012 18.267279 104.280632
131.608368 18.305843 104.082123
129.755417 18.130781 103.536812
129.371277 18.079103 103.530930
134.105499 17.967018 103.342491
132.249313 18.025936 103.862411
132.706131 18.403019 103.878540
133.404938 18.370041 104.727013
137.550262 18.283405 103.909271
134.912354 18.401583 103.371773
135.243561 18.324516 104.251770
135.337509 18.243963 103.457794
135.291306 18.223667 103.409012
113.269226 15.823594 105.790520
113.487846 16.652216 107.294861
113.695480 16.913433 107.763771
113.761719 17.359922 106.125778
112.340996 15.429342 105.964554
112.445541 15.843835 105.896118
112.734962 15.736867 105.914299
111.867180 15.422581 105.874489
112.489128 16.614647 106.352531
112.784630 16.079826 105.964729
112.452499 16.906733 106.963669
112.998779 16.513178 105.217110
112.741371 16.689520 107.623856
112.893234 16.949932 105.228096
112.999069 16.209232 106.550270
112.800232 15.828162 106.714912
113.538185 16.206432 107.194145
112.136902 15.154408 107.027496
115.265541 15.812233 106.798149
116.855125 16.960859 105.075272
114.693451 16.167635 105.642159
114.544960 15.681985 107.452972
114.492775 15.408938 106.758675
115.998344 17.398983 105.547646
116.707703 15.664733 105.973778
114.686142 16.486042 105.706856
116.753250 15.689706 105.285103
114.394958 16.773127 105.099579
115.961571 15.700457 105.195068
116.479736 15.527340 107.394272
114.709343 15.534101 108.020889
116.916023 16.086878 106.948891
117.104866 15.493802 107.432915
116.918915 15.515268 107.418053
117.244499 16.961794 107.190552
121.108711 15.966004 105.716713
121.523315 16.477558 105.365791
121.061333 16.050798 105.675644
120.921555 17.762571 105.651031
120.859978 17.866388 105.570351
124.514893 17.042971 107.340057
124.897354 17.377468 105.068108
123.907288 17.849665 105.374985
123.693916 16.988039 105.657440
124.506546 17.584518 106.919357
128.102982 17.952375 105.157600
126.881142 17.619646 106.756317
128.056793 17.481197 106.585899
127.576149 16.799351 107.715355
126.588127 18.184631 107.973564
125.932045 17.231886 106.463890
126.433479 17.443916 107.267456
126.312050 17.326391 106.041779
126.553467 17.630295 105.246452
128.336563 17.282309 105.952042
125.838966 17.528187 105.108955
130.127853 17.562126 105.126816
113.369179 17.157740 109.001999
113.209770 16.021660 110.404549
112.484535 15.507575 109.239227
113.277573 15.720730 109.107803
112.808563 15.313303 108.773148
112.291397 16.416283 109.662758
112.449158 16.793449 108.118645
114.448273 16.522043 109.940948
113.955826 15.370277 111.016235
114.907005 16.556652 108.505867
114.901352 16.607740 108.990730
121.683525 17.470736 110.277626
121.555061 16.143816 109.478172
121.187103 16.133635 109.931900
122.173149 16.706890 109.506554
122.018623 16.091837 109.400192
124.974060 18.468330 109.038445
125.030136 16.460978 110.747284
124.147575 17.624937 110.983849
124.900261 16.508425 110.301407
123.927971 17.822838 110.124596
124.830864 17.802219 109.182419
126.145515 17.912865 109.947517
126.103790 18.446114 110.389908
127.558472 18.026831 109.259117
126.562103 17.408278 109.721046
126.105698 18.418724 110.880173
126.281586 18.551802 108.111725
131.343826 18.601723 108.834373
131.325150 18.599249 108.827606
113.406609 15.750855 112.137222
113.476196 15.646052 112.199883
113.600822 15.479047 112.233452
113.702866 15.923148 111.209763
114.122330 15.356395 111.933113
122.154839 16.855185 111.184975
121.989494 16.714331 111.382637
122.553864 16.644718 111.339256
122.550270 18.007029 111.156143
125.496223 17.342554 111.367912
133.550461 17.801044 100.118378
133.719940 18.150684 99.759834
134.291077 17.639151 100.092896
134.373093 18.153883 99.988586
133.596741 18.201853 100.269928
134.322311 18.057581 100.407799
158.774826 21.315531 100.449448
128.059082 18.559256 104.903908
128.997406 18.212749 104.891930
130.192276 18.157372 103.605515
129.976486 18.786594 104.430809
133.675507 19.923929 104.663422
133.488770 19.880041 104.701218
136.597229 19.722980 104.339325
136.769699 19.755459 103.758507
138.223694 19.460007 104.326408
138.237915 20.183001 103.520805
138.317383 20.108105 103.531647
138.390900 20.265608 103.973541
140.213348 20.933447 104.456703
140.307983 21.400421 103.634315
140.217743 21.390602 103.732994
140.403610 21.778580 103.886963
142.094131 21.322781 103.954353
141.156876 21.111841 103.435776
142.262146 20.720299 104.539192
142.255280 20.715572 104.762291
145.489944 21.856350 103.313538
145.510941 21.863810 103.309509
145.995972 21.686312 103.737877
144.671661 21.924953 104.627182
145.917328 21.918196 103.449547
150.647415 21.656557 104.979370
124.158508 19.009398 107.083778
124.135735 18.946220 106.683685
125.333542 19.100019 107.807037
126.349937 19.038788 107.347847
128.170197 19.626678 107.061218
126.822571 21.312649 107.095848
127.943497 20.485909 107.653778
127.976471 19.934601 106.767204
130.493988 19.599564 106.718094
130.936081 19.439039 105.714699
130.791458 19.217865 106.153419
130.832016 19.668528 107.924431
130.374191 19.421646 107.293045
132.320679 19.498262 106.662102
132.505707 19.428617 106.832573
132.139771 19.352802 105.625259
137.165100 18.962820 106.101753
137.108871 19.111284 106.175255
137.163788 18.973370 106.101830
137.676270 19.002047 106.978600
137.478546 19.580153 106.057228
139.659988 19.436007 107.193756
138.588013 21.174597 106.917206
138.899033 21.223648 107.372047
140.288666 21.284006 106.068344
138.892212 21.209002 107.376900
143.414474 20.734648 105.452919
141.795837 19.509550 105.283691
143.335495 21.862892 105.261612
143.342239 21.905869 106.588463
141.252487 21.138744 106.421127
141.165146 19.834866 106.987167
142.572098 21.711712 107.854233
141.285461 19.563000 106.229347
143.844498 21.246923 107.668564
145.310059 21.408501 107.317802
145.747940 21.016550 106.854141
146.563950 21.919359 106.069405
146.081436 21.790030 105.962494
144.179337 21.431025 107.644966
143.868073 21.249413 107.655884
144.272369 20.812897 105.418663
146.546783 21.650057 106.841805
144.093491 21.792545 105.033646
148.352463 21.556700 105.421631
147.825897 21.687250 106.575836
148.339478 21.547707 105.397530
147.860107 21.886457 106.459755
150.507797 21.463783 106.891205
150.509705 21.456944 106.890739
150.511093 21.467539 106.888641
155.422974 21.077873 106.400345
153.189880 21.881199 106.068062
155.865143 20.762676 107.735138
157.193954 20.965240 107.660347
156.656601 20.970076 107.227074
156.428833 20.857403 107.249100
125.613388 19.478233 108.413475
126.885056 19.781002 109.336594
127.922173 19.151310 108.142448
130.962769 20.859766 108.218216
131.183365 18.750862 108.796562
133.078049 20.955784 108.209709
133.344162 20.964912 108.032394
133.208511 21.066618 108.112556
132.871140 18.999020 108.702690
133.418640 18.730976 108.066978
140.620667 21.663157 108.426933
140.135818 21.205009 108.301338
140.895081 21.190418 108.423103
142.050735 21.446611 108.191788
141.936432 19.533237 108.081749
154.394989 20.039640 109.169006
154.793015 20.370071 108.182495
155.230515 19.804024 108.623375
155.590363 19.955042 108.714745
155.820221 20.679144 109.499306
156.166870 21.136589 108.717461
155.839951 20.646492 109.159210
156.430435 20.176098 108.787735
156.940765 20.574421 109.011780
157.209335 23.240303 101.226181
158.019379 23.277788 100.212547
158.145065 23.224497 100.155060
156.346802 23.152420 101.717613
155.917786 23.153072 101.814308
155.838669 22.131344 101.880508
158.698059 23.608952 100.306824
159.026535 22.964983 100.800606
158.999939 23.124798 101.512398
176.436356 24.227257 101.561348
145.946121 22.040039 103.571556
150.186295 22.007160 104.984024
150.089859 21.997437 104.959190
152.121353 22.129227 104.738602
153.592041 24.272253 104.243576
154.540573 24.313282 103.490814
152.779755 23.949823 103.823044
152.784561 23.963022 103.606331
152.796005 23.965282 103.632271
152.791763 23.959089 103.625694
155.151031 24.206728 102.555801
155.562622 24.050531 104.446671
155.183426 22.470165 102.145287
155.750412 23.002449 103.205940
157.867966 23.097033 104.227074
158.237350 23.056635 102.990929
158.003632 24.460800 103.432503
156.742294 24.007011 104.553223
158.637848 23.095093 102.160393
155.886230 22.583225 103.999451
157.237152 22.232679 102.675354
160.086716 24.526218 104.757080
159.980637 24.396175 104.005486
158.825104 23.284889 104.947701
158.729355 24.522127 103.299171
160.380493 22.914545 104.172516
160.530212 22.659918 103.557053
161.797226 24.058868 103.746544
161.838806 24.151194 103.874031
161.743683 24.281826 103.698997
173.192474 25.224968 104.263908
144.584213 22.954664 106.144745
148.789627 23.412939 105.750679
148.924088 23.417143 105.755630
151.100220 22.018921 106.937164
152.369858 22.539293 105.835327
152.322891 22.503904 106.258354
151.457275 22.736197 105.867737
154.101028 22.066525 106.131126
153.487015 22.080643 107.867630
153.354843 22.038092 107.630211
154.000458 23.890930 107.393303
155.249634 24.265966 105.299339
154.352875 22.749748 106.027367
158.191452 22.382759 105.671432
157.344940 24.225529 105.476791
156.128906 24.152309 105.678467
155.846848 23.502411 106.645584
156.034241 23.542582 107.209053
156.846268 24.528988 105.701439
159.037933 22.464907 105.586807
159.477570 22.717007 105.486816
168.599579 24.749578 105.760742
153.732864 22.858660 108.860931
153.412262 23.146921 108.300308
171.407196 24.909569 109.711510
171.423218 24.824518 109.712082
189.909973 24.598000 120.036423
189.968063 24.714161 120.019295
176.106720 26.431606 101.561646
175.688278 26.300074 99.286964
175.525955 26.302521 99.202492
175.522736 26.314041 99.200981
176.107330 26.485374 101.642296
175.540207 26.258125 99.197784
175.512619 26.333132 99.203926
176.127426 26.486210 101.550735
161.390701 25.072735 104.416542
161.664505 25.417452 103.583336
168.132385 26.489391 105.022972
169.809891 26.838751 105.015823
168.746307 26.531410 104.857445
170.615356 26.921490 104.597427
172.358887 26.959251 104.307053
172.340210 26.673691 104.471931
170.861237 26.873661 104.525856
173.164017 25.440527 104.074738
176.340866 27.260130 103.755684
175.358551 27.137573 104.051003
176.173477 27.226145 103.773918
174.318222 25.483953 104.079391
174.335281 25.863029 104.209328
177.187408 26.470154 102.512650
177.199585 26.466398 102.503998
176.794388 26.577066 104.542793
179.524872 26.482695 103.257072
178.278839 25.992353 103.748428
179.215485 25.984247 103.527748
176.605377 25.793503 102.071289
182.595963 28.005800 104.643555
179.694901 26.523273 103.570312
179.725067 26.509733 103.766869
179.705170 26.517466 103.618942
183.458252 27.887575 104.559181
184.306000 28.006533 104.427834
168.323105 26.700098 107.116600
167.822922 26.522192 105.298416
167.868423 26.427086 105.197426
169.713470 26.657351 107.054962
170.380402 26.807951 105.057114
167.883133 26.019505 107.176445
167.945267 26.046461 107.370728
170.399612 26.279415 107.728226
167.940765 25.869030 105.999222
171.127502 26.970373 105.508606
172.439392 27.048479 105.769463
173.685593 27.636930 107.356483
172.818222 27.467291 107.511246
172.966339 27.604294 107.193718
172.947418 27.049135 106.553467
173.576202 26.950651 107.152298
173.651581 26.561275 107.267212
170.893173 26.289463 107.866699
170.819809 26.287821 107.842438
174.054230 27.212257 106.098259
174.965179 27.162579 105.390961
176.039749 26.421480 105.626762
174.144440 27.017570 105.059494
176.432449 26.518827 105.156799
176.683990 25.862608 105.701370
179.064529 27.341759 106.403244
178.448593 26.436922 106.249329
178.373062 25.958261 107.034836
178.371185 26.176857 107.030724
177.508606 25.936609 105.457802
178.416107 25.888145 107.076645
181.951370 28.019608 105.022095
180.151062 27.886595 106.225319
180.273834 27.785709 106.222183
181.231857 27.968855 106.793533
179.635941 26.316532 105.886635
184.116013 26.781797 105.284538
168.391739 26.620045 108.044838
168.586655 26.673100 108.098602
169.724899 26.375051 108.884842
170.697479 26.426622 109.775742
170.723770 26.850573 109.781303
170.693359 26.567959 109.743629
171.889389 26.804119 109.221214
172.235001 27.035646 108.513702
171.763779 26.788759 109.196297
182.029816 27.596973 109.480919
181.307693 28.024485 109.190498
221.823990 26.964609 111.787086
189.925919 24.995029 119.980125
189.917557 25.085968 120.007919
189.872726 25.424791 120.191948
182.367981 28.049925 104.808334
184.569366 28.180714 104.233307
185.717133 28.427038 104.386978
185.708221 28.425262 104.367462
185.757217 28.382853 104.411201
194.295151 30.323942 104.391548
194.345566 30.322918 104.376366
194.175629 30.419399 104.421890
194.358978 30.517361 104.368393
194.337418 30.305340 104.365982
180.350616 27.894665 106.220367
182.546188 29.049332 107.536133
182.390396 28.640554 105.552299
182.490356 28.698580 105.844444
183.862411 28.290518 107.476067
184.845169 28.329971 106.246422
184.921082 28.395161 107.205231
183.127319 28.146112 106.564957
183.377731 28.795725 105.670090
183.824371 28.970474 106.190193
185.638824 29.340092 106.881561
186.754456 28.606073 107.308220
185.948303 28.545799 105.499947
188.269104 28.736053 106.377319
187.912613 28.631245 106.495903
187.800858 29.295029 106.109276
188.369949 29.480879 107.926552
188.318985 29.125149 106.816368
187.934525 29.229811 106.279861
186.728989 29.469469 106.433319
190.140915 28.825256 107.948830
191.568634 28.505047 105.998688
190.914810 28.889910 106.181145
188.922256 28.624743 107.068359
191.354843 28.981205 106.010582
191.954254 29.522427 106.518196
191.347336 29.170893 107.029205
191.824982 28.500544 106.085953
191.933945 29.123529 106.688744
181.358185 27.932497 109.251587
180.895477 28.002819 108.103905
180.765961 27.983191 108.060509
182.387497 29.046131 108.576828
182.729004 28.224266 109.092926
185.466171 29.523100 108.962410
183.990692 29.275431 108.384888
183.041092 28.865269 109.292999
184.711899 29.360346 108.645927
186.873718 29.480911 108.715202
186.510406 29.568544 108.264305
186.585602 29.590464 108.893219
185.952698 29.603285 109.091728
190.336105 28.277451 108.975555
191.252899 28.497993 108.142273
191.123154 28.540283 108.316322
189.456497 28.143274 109.005180
189.916290 28.170071 109.250557
189.930313 29.533775 109.262604
189.402710 29.205355 108.845055
189.870239 29.096998 108.835419
221.172302 28.631626 111.329651
221.017914 28.586071 111.401993
220.975922 28.362045 110.963951
207.606812 32.069267 101.993233
209.151810 33.058815 100.847580
208.260056 33.084503 101.679611
207.449783 33.018692 101.815453
208.048569 32.991104 101.800911
208.928894 33.113037 101.322548
209.634125 32.966061 100.893471
210.066269 33.244587 100.520874
210.252975 33.386951 99.878174
210.949417 32.971149 100.328323
210.122437 33.430428 99.766960
210.540543 33.211391 100.062119
247.920654 33.117985 99.735252
247.733170 33.067902 99.518692
247.723618 33.584812 99.550232
247.724045 33.567867 99.743584
198.472641 31.739569 104.755569
198.093109 31.723492 104.881973
198.275162 31.742052 104.697250
198.777664 31.798218 104.722549
203.561783 32.785107 104.781723
204.046982 32.630352 103.544830
204.867279 32.804211 103.313080
206.373581 32.929066 103.069786
204.058228 32.659420 104.953278
204.269882 32.650570 104.269440
205.796768 31.968210 103.606453
205.713303 31.971346 102.889839
204.548218 32.536007 104.325615
205.370392 32.148457 103.199814
206.673492 32.903328 102.774605
207.763138 33.127197 104.715584
212.751236 33.152016 103.681168
212.569305 32.978748 104.816910
214.912460 32.836647 102.800827
213.306793 32.066631 102.860474
213.597733 32.546066 103.052818
214.166351 32.211353 102.575356
214.605713 32.782475 102.807411
214.187851 33.462196 103.731384
213.629242 33.403374 104.759552
215.681992 33.214870 103.233093
212.983841 32.497391 104.137184
215.612427 33.182335 103.223953
217.127487 33.424950 104.290825
217.422760 33.201141 104.673294
217.278381 33.773075 104.347809
194.175018 31.171263 106.566399
194.354599 31.188150 106.296173
194.086761 31.144587 106.282112
194.131546 31.141487 106.372910
196.173660 31.784037 106.824982
196.161270 31.714521 106.827469
196.190994 31.793989 106.848465
195.910049 31.594959 106.514900
197.569107 31.910023 106.980339
199.319778 32.022808 106.057129
200.508362 32.302792 105.998436
199.560318 32.825802 107.523430
199.866669 32.166462 106.717896
198.945877 31.893148 107.092056
197.945358 31.805937 105.117271
200.398270 32.207138 105.969398
200.856186 32.154022 106.710960
200.905060 31.923683 106.453506
205.104050 33.649784 106.797791
205.045990 33.170940 106.765945
206.061386 33.536503 105.066406
206.184662 32.910236 107.150711
204.255432 33.197891 105.783440
204.865158 33.457527 106.701172
206.666016 33.552200 105.076347
207.744202 33.668472 106.215553
206.880920 33.323471 105.510300
208.244766 33.344803 106.401825
208.506592 33.495232 105.911903
209.101974 32.892323 106.433571
209.373444 33.108887 106.091049
210.986496 33.685188 105.952583
209.840759 33.212502 105.484360
210.362015 33.799217 105.837189
212.311646 33.254433 105.614540
211.438141 33.264805 105.895782
209.828278 32.971985 106.490746
210.138733 32.841251 106.894424
214.066071 33.767658 105.449287
214.988586 33.774021 105.812927
214.282837 33.465424 106.560867
214.728317 33.468044 106.856064
212.824051 33.084160 105.843422
214.873749 33.930096 106.769783
218.286377 33.707676 105.752548
216.530518 33.853024 107.647469
215.797867 33.569515 107.104149
218.040878 33.822010 106.658600
218.597031 33.677547 106.255890
217.856247 33.745319 105.696938
216.843628 33.679272 107.744331
216.706314 33.716309 107.666771
197.405930 32.888123 108.119225
198.321609 33.077927 108.045662
197.859024 32.772995 108.301781
198.793640 32.231911 108.072754
197.920547 32.057480 108.243057
197.553207 31.709551 115.225746
200.005707 31.933243 114.741570
198.557922 31.851828 114.082207
199.394913 31.512299 116.150787
198.994751 31.739098 116.408119
198.671600 32.540062 114.849876
200.196335 31.973730 116.240944
199.110779 31.920195 114.008080
197.933319 31.824772 114.016472
198.153030 31.835236 115.799736
198.893417 31.795460 114.894341
201.248001 31.849697 116.097862
201.189621 32.058502 115.889221
201.152603 31.991709 115.893700
201.036316 31.963478 116.188774
233.543274 31.481934 119.798637
233.565430 31.620232 119.665047
232.907455 31.623606 120.113998
233.908340 31.541935 120.017799
214.602798 33.998161 104.548286
215.302856 34.056553 104.596573
217.236618 34.210445 104.086990
224.417404 35.713158 102.868103
223.620193 35.294258 103.735626
224.419052 35.090038 104.638382
224.008728 35.662586 103.047791
223.669296 35.781345 104.018387
226.454971 36.057095 104.643524
226.329208 36.203247 104.848618
226.201752 35.158806 104.195908
225.350754 36.064625 103.081329
225.174728 35.603062 102.988785
225.886490 36.060272 104.325577
229.513641 36.696922 104.974236
229.304337 35.894032 102.376770
228.699753 36.461411 103.018021
229.487350 36.186798 104.575600
229.610565 36.078827 103.562454
230.328445 36.284935 103.129601
230.295746 35.691025 102.680916
230.452332 36.734341 104.965355
237.268585 36.370781 104.255508
242.574951 36.867893 104.001961
205.483704 34.126671 106.048920
216.383759 34.053135 106.068954
217.839569 33.900379 107.145973
216.909286 34.518120 105.339165
219.827560 34.402550 106.683243
219.896652 34.701431 106.578026
219.970276 34.379547 106.588295
220.085648 34.375313 106.862297
223.529556 35.980560 106.672020
223.725586 34.915489 107.209358
224.366486 35.566662 107.531708
224.456497 35.675373 106.482162
224.598618 35.167969 105.513153
223.973557 35.938919 107.150475
226.236603 34.535049 107.865906
224.958252 34.483917 106.707504
227.099747 35.254238 107.472580
226.601105 35.800716 105.665939
225.738037 35.676819 106.772964
225.003006 36.107735 105.423462
226.342606 35.041626 107.714760
227.595688 36.079082 106.094627
227.135681 34.213493 107.248306
226.777573 34.461845 107.467247
230.367996 36.031040 106.462585
228.944275 36.357143 106.636024
228.918732 35.383873 106.152779
230.075546 36.874405 105.840134
228.172623 35.051041 105.786903
228.039139 35.459164 106.529785
228.259766 34.431316 107.324692
231.096802 36.768028 107.651978
231.094574 36.527649 107.653313
231.099289 36.647438 107.651871
232.299423 36.385723 107.576729
231.161011 36.159664 107.760391
232.846283 35.963097 107.842751
233.292786 36.520920 107.117790
234.384705 36.489449 107.063049
235.144287 36.416599 107.299515
237.009354 36.822388 105.041115
236.823975 36.747032 104.984268
237.067001 36.247383 106.325729
218.325775 34.516659 108.111000
218.680481 34.552753 108.335350
218.589813 35.108776 108.562897
220.340317 34.796898 108.227829
219.802704 35.374878 108.949615
219.795090 35.361038 108.957741
219.799118 35.372234 108.948486
226.744537 33.718605 108.244621
234.626480 35.374088 108.156410
233.747452 36.076317 108.170395
235.676163 36.855549 108.155067
236.487488 36.508690 109.061172
235.271149 36.235874 108.219353
237.572617 36.523808 108.046501
237.461197 36.446571 109.817253
237.739044 36.494511 109.932770
247.757629 36.624363 112.616356
248.036499 36.700695 111.743675
233.297348 32.548317 119.696434
233.273361 32.593941 121.308723
233.460968 32.989079 121.081596
233.511444 32.944550 121.136055
233.742233 32.767933 121.205582
229.046219 37.358925 102.940590
228.797134 37.051029 103.679703
231.868103 37.493240 104.669098
232.814194 37.673725 104.459610
239.140717 37.340435 103.845123
238.960007 37.362537 103.161903
237.710312 37.482201 103.693321
238.343399 36.955814 104.293976
237.444901 37.959133 103.765656
240.855545 37.709705 104.137001
240.034714 37.472828 104.281525
240.191483 37.402199 103.384125
241.209976 37.922104 104.000389
241.921814 38.096413 104.689224
242.664383 38.167091 103.615852
243.011642 38.289078 104.174004
243.031067 38.235397 104.076828
243.028809 38.168873 103.986946
250.921631 39.290993 104.771400
251.991913 39.462334 103.499931
252.622314 39.406330 104.543442
254.161285 39.799213 103.360046
254.315826 39.760788 103.130226
232.020096 37.481236 105.222557
232.485077 37.531475 105.271240
231.439911 37.344318 105.097015
232.980850 37.624321 105.376526
235.616287 37.185562 106.905457
235.977844 37.084957 106.434875
236.373383 37.016956 105.674576
237.818726 37.107143 105.998917
238.362488 37.250542 107.777863
237.039413 37.402443 107.688507
238.051575 37.460403 106.595047
238.666168 38.138691 105.773453
239.530914 38.668797 106.985870
239.794952 37.247025 105.521904
240.461533 38.106995 106.438393
240.278061 37.852837 107.735466
240.720871 37.794319 106.262779
240.685989 38.306507 105.656067
241.146606 38.726635 107.603531
248.108032 38.519615 107.115364
248.477798 38.555786 107.994736
248.230072 38.596241 108.014259
248.337692 38.744118 107.052757
248.539276 39.293594 107.201340
248.332947 38.718864 107.787949
260.213898 39.068241 107.517303
261.358490 39.112137 107.131073
262.073364 38.870411 107.965851
236.574692 37.049721 109.094734
238.177383 37.569725 109.060898
239.023209 37.092999 109.483757
237.823486 37.012142 109.927704
239.743927 37.437756 109.294037
241.738663 38.875416 109.236778
241.759323 38.881340 109.192848
241.795197 38.766022 109.055519
240.928986 38.623833 109.544235
241.761520 38.881409 109.189552
239.734848 37.729084 108.255196
239.754959 37.631744 109.308815
253.385620 38.357544 108.549294
253.399033 38.327305 108.560768
253.393646 38.243183 108.545708
253.366852 38.416821 108.558594
253.402039 38.248009 108.537270
260.151306 39.127903 108.094276
260.595428 39.069305 108.325027
248.529831 37.988857 112.069817
247.403229 37.024124 112.468918
248.528152 37.569862 112.221611
247.503616 37.088551 111.847206
247.579666 37.143394 112.668434
250.555069 38.216671 111.612602
250.785019 38.083839 112.481369
250.847092 38.205563 112.375481
250.474899 38.213100 111.570229
250.872925 38.277824 112.293121
249.427734 37.891281 112.459679
265.832275 41.712776 101.735077
265.979523 42.033524 99.652824
266.150757 42.043541 99.687881
265.916321 42.464581 99.661438
266.079773 42.470428 99.614441
266.101807 42.145012 99.554054
267.241638 42.251259 101.031975
269.605499 42.628296 101.708427
269.477234 42.695835 101.539948
269.480713 42.285896 101.693649
267.505585 42.449230 101.949966
279.435791 38.746674 99.834389
279.381317 38.855438 99.635468
279.519470 38.756157 99.772148
279.453217 38.434677 99.573494
290.300659 42.447895 101.677925
290.479126 42.542156 101.340202
289.977661 42.523861 101.838402
251.189758 40.048851 102.884789
251.229202 40.073795 102.869774
251.452438 40.062565 102.819962
249.953598 39.842281 104.189346
250.777267 40.042610 103.133461
254.086105 39.799503 102.656120
254.000916 39.838722 102.710159
254.120880 39.806393 102.960968
257.567108 40.478489 102.907288
259.559326 41.459988 104.403000
258.201538 41.595318 103.437050
259.448975 41.709190 104.434532
258.401398 41.694542 103.507721
259.520172 41.727810 104.444901
258.357605 40.302448 102.649025
257.758331 40.544243 102.890213
258.668365 40.144188 103.732628
258.437469 40.563164 102.593895
261.614807 42.246735 104.619286
261.352875 42.280174 104.500443
261.237213 42.390007 104.414330
261.288605 41.428074 104.304649
264.909546 42.175930 102.320496
264.824677 42.101109 102.597176
264.783722 42.204998 102.578583
267.516693 42.464535 101.986000
270.109955 41.545650 102.870667
270.218140 41.973827 103.817795
270.658051 41.190708 104.204422
270.789703 41.306995 104.027542
272.154602 42.546623 103.162964
274.520569 41.747196 103.834335
273.502319 42.219292 103.564804
275.398499 42.182266 103.767731
250.238602 39.926872 105.581520
249.958145 39.860058 105.525970
249.902084 39.818508 105.529877
249.880905 39.852459 105.513138
252.467697 40.776463 105.518761
252.914307 40.470257 105.995354
252.775299 39.910252 105.773224
252.763306 40.445213 105.939049
253.059570 39.997490 105.717163
260.307739 40.129993 107.650787
260.067780 39.999607 107.633690
260.506104 41.282726 105.854340
262.156403 40.306900 107.041908
262.670990 40.320168 107.222893
261.577515 40.713009 105.787308
261.493011 41.845146 105.694321
262.641907 40.813393 107.757805
261.323853 40.750011 106.008087
269.303772 42.657936 105.357780
267.633942 42.768883 105.976128
269.950562 42.396851 105.104698
274.759521 42.148445 104.985046
263.735352 40.232117 109.394875
262.270264 40.647526 108.343216
263.951172 40.661377 108.881363
263.863770 40.096336 109.303406
263.870300 40.133572 108.833237
263.900970 40.158978 109.215813
271.165558 42.735874 108.830185
286.001129 42.642616 110.561821
283.244049 42.698837 111.913261
283.100250 42.704117 111.417870
282.973267 42.714390 111.862404
285.231964 42.404755 111.416649
284.759888 41.890797 111.452141
285.266571 45.226021 100.279335
285.632446 44.995285 100.656815
284.740692 45.124527 100.562973
284.760681 45.074833 100.525826
285.226135 45.191689 101.163155
285.413147 45.142464 101.101440
290.000305 44.101475 101.667099
290.182587 44.208477 101.416656
289.679382 43.390266 101.542801
290.706482 43.354504 101.463005
266.340302 43.871956 104.289558
265.425262 43.308830 104.782806
265.259460 43.720783 104.255363
265.161804 43.027546 102.631439
265.171631 42.923061 103.556244
266.604095 43.061398 102.398552
267.992004 43.222252 101.974670
268.768402 43.102486 102.398193
271.487457 42.845200 104.844307
272.379211 42.998672 103.991280
270.176880 43.185013 102.328308
271.125061 42.673637 103.282707
275.671173 42.801868 103.635681
274.664520 43.687286 104.736244
273.407959 43.484150 104.190132
273.326385 42.767628 104.758553
275.473846 42.805527 103.368721
274.616608 42.787327 103.654778
290.704865 44.078857 102.450020
289.741547 43.863846 102.266403
265.655060 43.397343 105.119469
265.898590 43.310013 105.283607
267.341461 43.430454 105.082886
268.409576 42.803543 106.665588
268.928528 43.348690 107.394272
268.893799 43.327877 107.347610
268.002991 43.386013 105.755608
267.682373 43.695816 105.399681
269.085266 44.026001 105.856461
272.287781 43.283627 107.938522
269.884155 43.195202 105.999298
272.054260 43.197250 105.811317
270.644897 44.070812 106.229141
271.072723 43.964554 106.673981
272.297729 44.168404 106.963943
271.923553 43.970249 106.059586
275.467804 43.323498 106.314255
274.270569 43.194710 107.087074
275.391083 43.245754 105.211868
274.186829 43.794262 107.727058
273.972626 43.837933 107.165314
275.299072 43.292915 105.158287
274.465393 44.274158 107.180092
275.434906 43.637730 107.728401
278.162598 43.204193 107.354698
278.599365 43.361473 107.290573
277.908661 44.243641 107.368690
276.265289 43.766987 107.576668
279.292572 44.218922 107.566910
281.561584 44.933052 107.990585
281.245087 45.696819 107.512749
281.610474 45.788586 105.863274
284.120575 43.712589 107.301277
283.969757 44.554031 107.317268
284.179932 44.549934 107.232132
281.948364 45.194099 107.958923
282.373505 45.171555 107.189461
285.234589 43.383598 107.995712
285.542053 43.929417 107.718254
284.868225 43.839882 106.985664
285.118774 44.453472 107.688774
269.713074 43.446449 108.400017
270.352814 43.518326 109.555511
270.769989 43.176338 109.454803
272.272705 43.482212 108.205673
270.095917 43.547974 109.427040
270.167206 43.676926 109.418648
272.106720 44.012398 108.314049
271.052826 44.360092 108.171432
277.374908 43.147900 108.795555
277.539185 43.203564 108.859642
276.172852 42.894882 108.287048
277.873383 44.117954 108.952431
277.121735 44.090946 108.160164
279.774719 43.606945 108.138313
279.703979 43.612564 108.567184
279.659271 43.596210 108.638016
279.181580 44.236088 108.841034
282.501892 43.513313 110.267212
281.837280 44.396233 108.827805
284.218140 44.199627 109.345795
282.257568 44.280586 109.300690
282.834259 43.998722 109.832520
282.555511 44.091301 109.116287
283.987305 43.851162 110.512924
285.799286 43.318153 109.932655
285.491302 43.520626 109.031860
285.329987 43.817410 110.012497
284.606842 42.817741 111.712395
282.885468 42.766598 111.723198
285.853210 42.987053 111.342171
292.434845 48.478745 97.147202
292.758209 48.233971 97.051765
292.238373 47.822632 97.726143
293.538849 48.280621 98.326950
292.712616 47.450310 97.473572
292.017792 47.074497 98.805611
293.596527 48.344666 97.466919
293.805115 48.292919 98.006218
291.473694 46.502739 99.981224
291.450409 46.309311 99.835564
291.433502 46.383358 100.022049
293.326569 47.778996 100.705704
291.468689 46.342495 100.183258
293.261322 47.041729 99.952461
292.505859 47.864902 100.543488
293.320282 48.181324 99.336617
293.303009 47.710098 100.601982
293.281952 47.630562 100.700912
281.132538 46.378910 105.558197
281.190002 46.330853 105.591721
280.943176 46.490238 105.647827
281.017517 46.397274 105.543228
280.976288 46.076080 107.053970
154.904160 45.948845 118.975800
154.518341 45.477924 119.297089
154.664841 45.650024 119.558723
154.703491 45.737850 119.231697
125.968307 58.346554 92.880722
125.857574 58.861416 92.625107
126.191353 58.193672 91.893349
